# .PCD v0.7 - Point Cloud Data file format
VERSION 0.7
FIELDS x y z rgb
SIZE 4 4 4 4
TYPE F F F F
COUNT 1 1 1 1
WIDTH 1025
HEIGHT 1
VIEWPOINT 0 0 0 1 0 0 0
POINTS 1025
DATA ascii
0.76556182 0.4450928 0.61000139 1.0602497e-38
0.76829278 0.44587994 0.61000144 1.0602497e-38
0.77195096 0.44562545 0.61000144 1.0602497e-38
0.7765469 0.44530571 0.6100015 1.0602497e-38
0.77931887 0.44511288 0.6100015 1.0602497e-38
0.78210127 0.44590747 0.61000156 1.0602497e-38
0.78489417 0.44571501 0.61000156 1.0602497e-38
0.78769761 0.44552189 0.61000162 1.0602497e-38
0.79051161 0.445328 0.61000156 1.0602497e-38
0.79333627 0.44513333 0.61000162 1.0602497e-38
0.79617161 0.44593549 0.61000162 1.0602497e-38
0.79901779 0.4457413 0.61000168 1.0602497e-38
0.80187476 0.44554639 0.61000162 1.0602497e-38
0.80474257 0.44535065 0.61000168 1.0602497e-38
0.80762142 0.44515425 0.61000168 1.0602497e-38
0.81051123 0.4459641 0.61000168 1.0602497e-38
0.81341213 0.44576806 0.61000174 1.0602497e-38
0.81632423 0.4455713 0.61000174 1.0602497e-38
0.81924754 0.44537383 0.61000174 1.0602497e-38
0.82218206 0.44517547 0.61000186 1.0602497e-38
0.82512802 0.44599324 0.6100018 1.0602497e-38
0.8280853 0.44579539 0.6100018 1.0602497e-38
0.83105403 0.44559675 0.6100018 1.0602497e-38
0.83403426 0.44539735 0.61000186 1.0602497e-38
0.83702624 0.44519717 0.61000192 1.0602497e-38
0.8400299 0.44602293 0.61000192 1.0602497e-38
0.84304512 0.44582319 0.61000192 1.0602497e-38
0.84607232 0.44562268 0.61000198 1.0602497e-38
0.84911132 0.44542137 0.61000198 1.0602497e-38
0.85216236 0.44521934 0.61000192 1.0602497e-38
0.85522532 0.44605321 0.61000204 1.0602497e-38
0.85830045 0.44585156 0.61000204 1.0602497e-38
0.86138773 0.44564915 0.6100021 1.0602497e-38
0.86448729 0.4454459 0.61000204 1.0602497e-38
0.86759907 0.44524181 0.61000216 1.0694693e-38
0.28710729 0.4483982 0.60999846 1.0694693e-38
0.28946608 0.44849062 0.60999846 1.0694693e-38
0.2925877 0.44850782 0.60999846 1.0694693e-38
0.29572743 0.44852567 0.60999846 1.0694693e-38
0.29825416 0.44827336 0.6099984 1.0694693e-38
0.30124927 0.4484992 0.6099984 1.0694693e-38
0.30462727 0.44830734 0.60999846 1.0694693e-38
0.3070704 0.44840074 0.6099984 1.0694693e-38
0.3104336 0.44851768 0.60999846 1.0694693e-38
0.31355673 0.44843578 0.6099984 1.0694693e-38
0.31630594 0.44850469 0.60999835 1.0694693e-38
0.31959882 0.44852287 0.6099984 1.0694693e-38
0.32291186 0.44854078 0.60999835 1.0694693e-38
0.32571203 0.44861102 0.60999835 1.0694693e-38
0.32825866 0.44870758 0.60999835 1.0694693e-38
0.33182284 0.44851115 0.60999829 1.0694693e-38
0.33502108 0.44874543 0.60999835 1.0694693e-38
0.33775097 0.44848371 0.60999835 1.0694693e-38
0.34049517 0.44822067 0.60999835 1.0694693e-38
0.34325403 0.44865179 0.60999835 1.0694693e-38
0.34602749 0.4483878 0.60999835 1.0694693e-38
0.34951568 0.44840607 0.60999829 1.0694693e-38
0.35302588 0.4484241 0.60999835 1.0694693e-38
0.35599318 0.44849616 0.60999835 1.0694693e-38
0.35869229 0.44859529 0.60999829 1.0694693e-38
0.36154827 0.44832724 0.60999829 1.0694693e-38
0.36427578 0.44842595 0.60999829 1.0694693e-38
0.36730677 0.44849831 0.60999835 1.0694693e-38
0.37035498 0.4485715 0.60999829 1.0694693e-38
0.37312794 0.44867218 0.60999829 1.0694693e-38
0.37606233 0.44840068 0.60999823 1.0694693e-38
0.37886491 0.44850096 0.60999823 1.0694693e-38
0.3819795 0.44857448 0.60999823 1.0694693e-38
0.38496244 0.44830048 0.60999823 1.0694693e-38
0.38796186 0.44875118 0.60999823 1.0694693e-38
0.39097792 0.44847617 0.60999823 1.0694693e-38
0.39401066 0.44819957 0.60999823 1.0694693e-38
0.39706028 0.44865277 0.60999823 1.0694693e-38
0.40012696 0.44837517 0.60999823 1.0694693e-38
0.40321076 0.44883245 0.60999823 1.0694693e-38
0.40631187 0.44855374 0.60999823 1.0694693e-38
0.40943044 0.44827354 0.60999823 1.0694693e-38
0.41256657 0.44873333 0.60999823 1.0694693e-38
0.41572049 0.448452 0.60999811 1.0694693e-38
0.41889226 0.44891596 0.60999817 1.0694693e-38
0.42208207 0.44863361 0.60999817 1.0694693e-38
0.4244858 0.44804543 0.60999823 1.0694693e-38
0.42690101 0.44820642 0.60999817 1.0694693e-38
0.43013668 0.44867438 0.60999811 1.0694693e-38
0.43339089 0.4483884 0.60999817 1.0694693e-38
0.43666387 0.44810081 0.60999811 1.0694693e-38
0.43995571 0.44857138 0.60999811 1.0694693e-38
0.44243658 0.44873634 0.60999811 1.0694693e-38
0.44492942 0.44813824 0.60999811 1.0694693e-38
0.44826931 0.44861233 0.60999811 1.0694693e-38
0.45162877 0.44832167 0.60999811 1.0694693e-38
0.45500785 0.44880021 0.60999811 1.0694693e-38
0.45755386 0.44819453 0.6099993 1.0602497e-38
0.46011311 0.4483605 0.6099993 1.0602497e-38
0.4635421 0.4488427 0.6099993 1.0602497e-38
0.46699142 0.44854879 0.6099993 1.0602497e-38
0.4695912 0.44793695 0.60999942 1.0602497e-38
0.47220379 0.44888651 0.60999936 1.0602497e-38
0.47570467 0.44859052 0.60999942 1.0602497e-38
0.47834337 0.44797418 0.60999948 1.0602497e-38
0.48070002 0.44856167 0.60999942 1.0602497e-38
0.48454875 0.44863284 0.60999948 1.0602497e-38
0.4872272 0.44801199 0.60999954 1.0602497e-38
0.48961949 0.44860396 0.60999948 1.0602497e-38
0.49352661 0.44867587 0.60999954 1.0602497e-38
0.49624586 0.44805041 0.60999948 1.0602497e-38
0.49867451 0.44864693 0.60999954 1.0602497e-38
0.50264138 0.44871953 0.6099996 1.0602497e-38
0.50540221 0.44808936 0.60999954 1.0602497e-38
0.50786823 0.44869056 0.6099996 1.0602497e-38
0.51189607 0.44876385 0.60999966 1.0602497e-38
0.51469958 0.44812891 0.60999972 1.0602497e-38
0.51751745 0.44830292 0.60999966 1.0602497e-38
0.520347 0.44847852 0.60999972 1.0602497e-38
0.52319115 0.44865412 0.60999972 1.0602497e-38
0.52700305 0.44834459 0.60999978 1.0602497e-38
0.52987683 0.44852161 0.60999984 1.0602497e-38
0.53308713 0.44826195 0.60999978 1.0602497e-38
0.53566629 0.44887745 0.60999984 1.0602497e-38
0.53858227 0.44823083 0.6099999 1.0602497e-38
0.54151046 0.44840866 0.60999984 1.0602497e-38
0.5444541 0.44858783 0.60999984 1.0602497e-38
0.54741007 0.4479354 0.6099999 1.0602497e-38
0.5500508 0.44855723 0.6099999 1.0602497e-38
0.55336595 0.44829351 0.6099999 1.0602497e-38
0.55636597 0.44847345 0.6099999 1.0602497e-38
0.5593788 0.44865507 0.60999995 1.0602497e-38
0.56274503 0.44838953 0.60999995 1.0602497e-38
0.56544954 0.44902006 0.61000001 1.0602497e-38
0.56850767 0.44835824 0.61000001 1.0602497e-38
0.57157898 0.44854063 0.61000001 1.0602497e-38
0.5746668 0.44872445 0.61000007 1.0602497e-38
0.57776797 0.44805655 0.61000013 1.0602497e-38
0.58053875 0.44869375 0.61000013 1.0602497e-38
0.5840174 0.44842398 0.61000013 1.0602497e-38
0.58611411 0.44911903 0.61000019 1.0602497e-38
0.58927292 0.44844663 0.61000019 1.0602497e-38
0.59244549 0.44863224 0.61000019 1.0602497e-38
0.59528023 0.44841424 0.61000019 1.0602497e-38
0.5988394 0.44814062 0.61000019 1.0602497e-38
0.60098475 0.44884321 0.61000025 1.0602497e-38
0.60457695 0.44856942 0.61000031 1.0602497e-38
0.60746354 0.44834942 0.61000031 1.0602497e-38
0.61072803 0.44853795 0.61000031 1.0602497e-38
0.614007 0.44872689 0.61000031 1.0602497e-38
0.61620271 0.44856098 0.61000037 1.0602497e-38
0.61987942 0.4482832 0.61000037 1.0602497e-38
0.62283403 0.44894204 0.61000043 1.0602497e-38
0.62505931 0.4478918 0.61000043 1.0602497e-38
0.62803882 0.44855222 0.61000043 1.0602497e-38
0.63178021 0.44827205 0.61000049 1.0602497e-38
0.63403565 0.4489927 0.61000049 1.0602497e-38
0.63743412 0.44829494 0.61000049 1.0602497e-38
0.64084798 0.44848704 0.61000055 1.0602497e-38
0.64313424 0.44831735 0.61000055 1.0602497e-38
0.64657927 0.44851023 0.61000055 1.0602497e-38
0.65003997 0.44870499 0.61000061 1.0602497e-38
0.65235758 0.44853449 0.61000067 1.0602497e-38
0.65468323 0.44836342 0.61000061 1.0602497e-38
0.65857798 0.44807693 0.61000067 1.0602497e-38
0.6617083 0.44875464 0.61000067 1.0602497e-38
0.66406614 0.44858277 0.61000073 1.0602497e-38
0.66722363 0.44835261 0.61000067 1.0602497e-38
0.67118895 0.44806358 0.61000073 1.0602497e-38
0.67357969 0.44880518 0.61000073 1.0602497e-38
0.6759789 0.44863194 0.61000073 1.0602497e-38
0.67919159 0.44839981 0.61000085 1.0602497e-38
0.68322664 0.44810838 0.61000085 1.0602497e-38
0.68565959 0.44885659 0.61000091 1.0602497e-38
0.68810111 0.44868189 0.61000085 1.0602497e-38
0.69055122 0.44850656 0.61000091 1.0602497e-38
0.69465494 0.44821289 0.61000085 1.0602497e-38
0.69795352 0.44890895 0.61000091 1.0602497e-38
0.70043844 0.44873273 0.61000097 1.0602497e-38
0.70293224 0.44855595 0.61000097 1.0602497e-38
0.70710927 0.44825983 0.61000103 1.0602497e-38
0.7104671 0.44896221 0.61000103 1.0602497e-38
0.71299672 0.44878453 0.61000103 1.0602497e-38
0.7155354 0.44860622 0.61000109 1.0602497e-38
0.7180832 0.44842732 0.61000109 1.0602497e-38
0.72064024 0.44824776 0.61000103 1.0602497e-38
0.72406483 0.44895673 0.61000109 1.0602497e-38
0.72836661 0.44865745 0.61000115 1.0602497e-38
0.73096091 0.44847697 0.61000115 1.0602497e-38
0.73356444 0.44829583 0.61000121 1.0602497e-38
0.73617756 0.4481141 0.61000115 1.0602497e-38
0.73880017 0.44889092 0.61000115 1.0602497e-38
0.74143225 0.44870955 0.61000127 1.0602497e-38
0.7458418 0.44840574 0.61000127 1.0602497e-38
0.74938685 0.44816148 0.61000127 1.0602497e-38
0.75205785 0.44797745 0.61000133 1.0602497e-38
0.75473875 0.44876269 0.61000133 1.0602497e-38
0.7574296 0.44857907 0.61000133 1.0602497e-38
0.76013029 0.44839478 0.61000139 1.0602497e-38
0.76284105 0.44820982 0.61000139 1.0602497e-38
0.76556182 0.44802415 0.61000139 1.0602497e-38
0.76829278 0.44881678 0.61000144 1.0602497e-38
0.77286816 0.44850764 0.61000144 1.0602497e-38
0.7765469 0.448259 0.6100015 1.0602497e-38
0.77931887 0.44807172 0.6100015 1.0602497e-38
0.78210127 0.44887185 0.61000156 1.0602497e-38
0.78489417 0.44868499 0.61000156 1.0602497e-38
0.78769761 0.44849744 0.61000162 1.0602497e-38
0.79051161 0.44830918 0.61000156 1.0602497e-38
0.79333627 0.44812021 0.61000162 1.0602497e-38
0.79617161 0.448928 0.61000162 1.0602497e-38
0.79901779 0.44873947 0.61000168 1.0602497e-38
0.80187476 0.44855022 0.61000162 1.0602497e-38
0.80474257 0.44836026 0.61000168 1.0602497e-38
0.80762142 0.44816959 0.61000168 1.0602497e-38
0.81051123 0.44898522 0.61000168 1.0602497e-38
0.81341213 0.44879496 0.61000174 1.0602497e-38
0.81632423 0.44860405 0.61000174 1.0602497e-38
0.81924754 0.44841236 0.61000174 1.0602497e-38
0.82218206 0.44821993 0.61000186 1.0602497e-38
0.82512802 0.44802678 0.6100018 1.0602497e-38
0.8280853 0.44885159 0.6100018 1.0602497e-38
0.83105403 0.44865891 0.6100018 1.0602497e-38
0.83403426 0.44846547 0.61000186 1.0602497e-38
0.83702624 0.44827124 0.61000192 1.0602497e-38
0.8400299 0.44807631 0.61000192 1.0602497e-38
0.84304512 0.44890928 0.61000192 1.0602497e-38
0.84607232 0.44871482 0.61000198 1.0602497e-38
0.84911132 0.44851959 0.61000198 1.0602497e-38
0.85216236 0.44832364 0.61000192 1.0602497e-38
0.85522532 0.44812685 0.61000204 1.0602497e-38
0.85830045 0.44896811 0.61000204 1.0602497e-38
0.86138773 0.44877186 0.6100021 1.0602497e-38
0.86448729 0.44857484 0.61000204 1.0602497e-38
0.28698346 0.45137435 0.60999846 1.0694693e-38
0.2893416 0.45147347 0.60999846 1.0694693e-38
0.29258755 0.45159844 0.60999846 1.0694693e-38
0.29560143 0.4515273 0.60999846 1.0694693e-38
0.29812747 0.45128265 0.60999846 1.0694693e-38
0.30143115 0.45163086 0.6099984 1.0694693e-38
0.304499 0.45133573 0.60999846 1.0694693e-38
0.30719933 0.45141181 0.6099984 1.0694693e-38
0.31043345 0.45143905 0.6099984 1.0694693e-38
0.31368732 0.4514662 0.6099984 1.0694693e-38
0.31643718 0.45154381 0.60999835 1.0694693e-38
0.31959894 0.45147061 0.60999846 1.0694693e-38
0.32304487 0.45159951 0.60999835 1.0694693e-38
0.32557833 0.45170325 0.60999835 1.0694693e-38
0.32825866 0.45145169 0.60999835 1.0694693e-38
0.33143643 0.45169422 0.60999829 1.0694693e-38
0.33502102 0.45150751 0.60999835 1.0694693e-38
0.33775097 0.45125312 0.60999835 1.0694693e-38
0.34035763 0.45135698 0.60999835 1.0694693e-38
0.34325403 0.45143583 0.60999835 1.0694693e-38
0.34616655 0.45151553 0.60999835 1.0694693e-38
0.34951583 0.45144019 0.60999829 1.0694693e-38
0.35316682 0.45157275 0.60999835 1.0694693e-38
0.3558515 0.45167947 0.60999835 1.0694693e-38
0.35869229 0.45142043 0.60999829 1.0694693e-38
0.36140507 0.45152682 0.60999829 1.0694693e-38
0.36441976 0.4516077 0.60999829 1.0694693e-38
0.36730677 0.45134637 0.60999835 1.0694693e-38
0.37020946 0.45179802 0.60999829 1.0694693e-38
0.37312794 0.45153576 0.60999829 1.0694693e-38
0.37606233 0.45127207 0.60999823 1.0694693e-38
0.37901282 0.45172626 0.60999823 1.0694693e-38
0.38197953 0.45146164 0.60999823 1.0694693e-38
0.38511199 0.45154437 0.60999823 1.0694693e-38
0.38796186 0.45165429 0.60999823 1.0694693e-38
0.39097792 0.45138726 0.60999823 1.0694693e-38
0.39401066 0.45111877 0.60999823 1.0694693e-38
0.3970603 0.45158008 0.60999823 1.0694693e-38
0.40012699 0.45131063 0.60999823 1.0694693e-38
0.40321073 0.45177609 0.60999823 1.0694693e-38
0.40631187 0.45150569 0.60999823 1.0694693e-38
0.40943044 0.45123374 0.60999823 1.0694693e-38
0.41256657 0.45170191 0.60999823 1.0694693e-38
0.41572052 0.45142901 0.60999817 1.0694693e-38
0.41889226 0.45190138 0.60999817 1.0694693e-38
0.42208207 0.45162749 0.60999823 1.0694693e-38
0.4244858 0.45104575 0.60999823 1.0694693e-38
0.42690101 0.45121315 0.60999817 1.0694693e-38
0.43013662 0.45168969 0.60999817 1.0694693e-38
0.43339086 0.45141244 0.60999817 1.0694693e-38
0.43666387 0.45113355 0.60999811 1.0694693e-38
0.43995571 0.45161289 0.60999811 1.0694693e-38
0.44243658 0.45178446 0.60999811 1.0694693e-38
0.44492942 0.45119298 0.60999811 1.0694693e-38
0.44826934 0.45167598 0.60999811 1.0694693e-38
0.45162874 0.45139426 0.60999811 1.0694693e-38
0.45500785 0.4518818 0.60999811 1.0694693e-38
0.45755386 0.45128289 0.6099993 1.0602497e-38
0.46011311 0.45145571 0.6099993 1.0602497e-38
0.46325549 0.45158243 0.6099993 1.0602497e-38
0.46699142 0.4516623 0.6099993 1.0602497e-38
0.4695912 0.45105734 0.60999942 1.0602497e-38
0.47191295 0.45164657 0.60999936 1.0602497e-38
0.47570467 0.45172721 0.60999942 1.0602497e-38
0.47834337 0.4511179 0.60999948 1.0602497e-38
0.48099527 0.45129344 0.60999942 1.0602497e-38
0.48454875 0.4517931 0.60999948 1.0602497e-38
0.4872272 0.45117936 0.60999954 1.0602497e-38
0.48991919 0.45135635 0.60999954 1.0602497e-38
0.49352661 0.45186001 0.60999954 1.0602497e-38
0.49624586 0.45124179 0.60999948 1.0602497e-38
0.49897879 0.45142025 0.60999954 1.0602497e-38
0.50233525 0.45155111 0.6099996 1.0602497e-38
0.50540221 0.45130515 0.60999954 1.0602497e-38
0.50817716 0.4514851 0.60999966 1.0602497e-38
0.51158518 0.45161721 0.60999966 1.0602497e-38
0.51469958 0.45136943 0.60999972 1.0602497e-38
0.51751745 0.45155096 0.60999966 1.0602497e-38
0.520347 0.45173407 0.60999972 1.0602497e-38
0.52350783 0.45148477 0.60999972 1.0602497e-38
0.52700305 0.45161784 0.60999978 1.0602497e-38
0.52987683 0.45180255 0.60999984 1.0602497e-38
0.53276551 0.45116585 0.60999978 1.0602497e-38
0.53566629 0.45217377 0.60999984 1.0602497e-38
0.53858232 0.45153499 0.6099999 1.0602497e-38
0.54151046 0.45089257 0.60999984 1.0602497e-38
0.54412633 0.4515177 0.60999984 1.0602497e-38
0.54741007 0.45126301 0.6099999 1.0602497e-38
0.55038172 0.45144916 0.6099999 1.0602497e-38
0.55336595 0.451637 0.6099999 1.0602497e-38
0.55670005 0.45138064 0.6099999 1.0602497e-38
0.5593788 0.45201454 0.60999995 1.0602497e-38
0.56240773 0.45136306 0.61000001 1.0602497e-38
0.56544954 0.4515518 0.61000001 1.0602497e-38
0.56850767 0.45174199 0.61000001 1.0602497e-38
0.57157898 0.45108461 0.61000001 1.0602497e-38
0.57432294 0.45172524 0.61000007 1.0602497e-38
0.57776797 0.45146501 0.61000013 1.0602497e-38
0.58123308 0.45120314 0.61000013 1.0602497e-38
0.5840174 0.45184907 0.61000013 1.0602497e-38
0.58611411 0.45169204 0.61000019 1.0602497e-38
0.58892113 0.45148182 0.61000019 1.0602497e-38
0.59244549 0.45121789 0.61000019 1.0602497e-38
0.59563547 0.45141062 0.61000025 1.0602497e-38
0.5988394 0.45160517 0.61000019 1.0602497e-38
0.60098475 0.45144594 0.61000025 1.0602497e-38
0.60421705 0.45164123 0.61000031 1.0602497e-38
0.60746354 0.45096505 0.61000031 1.0602497e-38
0.6103645 0.45162353 0.61000031 1.0602497e-38
0.614007 0.45135558 0.61000031 1.0602497e-38
0.61620271 0.45207176 0.61000037 1.0602497e-38
0.61951101 0.45139104 0.61000037 1.0602497e-38
0.62283403 0.45158839 0.61000043 1.0602497e-38
0.62505931 0.45142618 0.61000043 1.0602497e-38
0.62878555 0.4511545 0.61000043 1.0602497e-38
0.63178021 0.45182431 0.61000049 1.0602497e-38
0.63403565 0.45166141 0.61000049 1.0602497e-38
0.63705564 0.45144328 0.61000049 1.0602497e-38
0.64084798 0.45116934 0.61000055 1.0602497e-38
0.64313424 0.45189983 0.61000055 1.0602497e-38
0.64696294 0.45162585 0.61000055 1.0602497e-38
0.65003997 0.45140564 0.61000061 1.0602497e-38
0.65235758 0.45123976 0.61000067 1.0602497e-38
0.65468323 0.45197666 0.61000061 1.0602497e-38
0.65818769 0.45127577 0.61000067 1.0602497e-38
0.6617083 0.4514786 0.61000067 1.0602497e-38
0.66406614 0.45131147 0.61000073 1.0602497e-38
0.66761935 0.45151514 0.61000067 1.0602497e-38
0.67118895 0.45172077 0.61000073 1.0602497e-38
0.67357969 0.45155287 0.61000073 1.0602497e-38
0.6759789 0.4513844 0.61000073 1.0602497e-38
0.67999697 0.45110217 0.61000085 1.0602497e-38
0.68322664 0.45179763 0.61000085 1.0602497e-38
0.68565959 0.45162839 0.61000091 1.0602497e-38
0.68810111 0.45145857 0.61000085 1.0602497e-38
0.69055122 0.4512881 0.61000091 1.0602497e-38
0.69424361 0.45149648 0.61000085 1.0602497e-38
0.69795352 0.45170528 0.61000091 1.0602497e-38
0.70043844 0.45153409 0.61000097 1.0602497e-38
0.70293224 0.45136225 0.61000097 1.0602497e-38
0.70669067 0.45157266 0.61000103 1.0602497e-38
0.7104671 0.45178354 0.61000103 1.0602497e-38
0.71299672 0.45161092 0.61000103 1.0602497e-38
0.7155354 0.45143771 0.61000109 1.0602497e-38
0.7180832 0.45126384 0.61000109 1.0602497e-38
0.72064024 0.45203662 0.61000103 1.0602497e-38
0.72492337 0.45174718 0.61000115 1.0602497e-38
0.72836661 0.45151454 0.61000115 1.0602497e-38
0.73096091 0.45133924 0.61000115 1.0602497e-38
0.73356444 0.45116329 0.61000121 1.0602497e-38
0.73617756 0.45098677 0.61000115 1.0602497e-38
0.73880017 0.45176885 0.61000115 1.0602497e-38
0.74143225 0.45159274 0.61000127 1.0602497e-38
0.74495792 0.45135689 0.61000127 1.0602497e-38
0.74938685 0.45106056 0.61000127 1.0602497e-38
0.75205785 0.45184997 0.61000133 1.0602497e-38
0.75473875 0.45167243 0.61000133 1.0602497e-38
0.7574296 0.45149419 0.61000133 1.0602497e-38
0.76013029 0.45131528 0.61000139 1.0602497e-38
0.76284105 0.45113575 0.61000139 1.0602497e-38
0.76556182 0.45193264 0.61000139 1.0602497e-38
0.76829278 0.45175356 0.61000144 1.0602497e-38
0.77195102 0.45151374 0.61000139 1.0602497e-38
0.7765469 0.45121229 0.6100015 1.0602497e-38
0.77931887 0.45103055 0.6100015 1.0602497e-38
0.78210127 0.45183623 0.61000156 1.0602497e-38
0.78489417 0.45165494 0.61000156 1.0602497e-38
0.78769761 0.451473 0.61000162 1.0602497e-38
0.79051161 0.45129037 0.61000156 1.0602497e-38
0.79333627 0.45110703 0.61000162 1.0602497e-38
0.79617161 0.45192045 0.61000162 1.0602497e-38
0.79901779 0.45173764 0.61000168 1.0602497e-38
0.80187476 0.45155412 0.61000162 1.0602497e-38
0.80474257 0.45136988 0.61000168 1.0602497e-38
0.80762142 0.45118493 0.61000168 1.0602497e-38
0.81051123 0.45200634 0.61000168 1.0602497e-38
0.81341213 0.45182189 0.61000174 1.0602497e-38
0.81632423 0.45163679 0.61000174 1.0602497e-38
0.81924754 0.45145094 0.61000174 1.0602497e-38
0.82218206 0.45126438 0.61000186 1.0602497e-38
0.82512802 0.45107707 0.6100018 1.0602497e-38
0.8280853 0.45190781 0.6100018 1.0602497e-38
0.83105403 0.45172107 0.6100018 1.0602497e-38
0.83403426 0.45153356 0.61000186 1.0602497e-38
0.83702624 0.45134532 0.61000192 1.0602497e-38
0.8400299 0.45115638 0.61000192 1.0602497e-38
0.84304512 0.45096666 0.61000192 1.0602497e-38
0.84607232 0.45180696 0.61000198 1.0602497e-38
0.84911132 0.45161781 0.61000198 1.0602497e-38
0.85216236 0.45142794 0.61000192 1.0602497e-38
0.85522532 0.45123723 0.61000204 1.0602497e-38
0.85830045 0.45104581 0.61000204 1.0602497e-38
0.86138773 0.45189458 0.6100021 1.0602497e-38
0.86448729 0.45170373 0.61000204 1.0602497e-38
0.2868596 0.45434934 0.60999846 1.0694693e-38
0.28946605 0.45443201 0.60999846 1.0694693e-38
0.29258743 0.45446831 0.6099984 1.0694693e-38
0.29572743 0.45450455 0.60999846 1.0694693e-38
0.29838076 0.4545888 0.60999846 1.0694693e-38
0.3014313 0.45452628 0.60999846 1.0694693e-38
0.30475554 0.45466295 0.60999846 1.0694693e-38
0.30732825 0.45442405 0.60999835 1.0694693e-38
0.31043363 0.45436046 0.60999846 1.0694693e-38
0.31381789 0.45449787 0.60999846 1.0694693e-38
0.31630594 0.45460773 0.60999835 1.0694693e-38
0.31978777 0.45443377 0.6099984 1.0694693e-38
0.32291189 0.45468336 0.60999835 1.0694693e-38
0.32557833 0.45444024 0.6099984 1.0694693e-38
0.32812431 0.4545508 0.60999835 1.0694693e-38
0.33162954 0.45469117 0.60999829 1.0694693e-38
0.33502102 0.45426959 0.60999835 1.0694693e-38
0.33761412 0.45438075 0.60999835 1.0694693e-38
0.34049517 0.45446777 0.60999835 1.0694693e-38
0.34339231 0.45455569 0.60999835 1.0694693e-38
0.34602749 0.45466894 0.60999835 1.0694693e-38
0.34971592 0.4544901 0.60999829 1.0694693e-38
0.35302588 0.4547472 0.60999835 1.0694693e-38
0.35585147 0.45449704 0.60999835 1.0694693e-38
0.35869229 0.45424557 0.60999829 1.0694693e-38
0.36154827 0.45470041 0.60999829 1.0694693e-38
0.36441976 0.4544481 0.60999829 1.0694693e-38
0.36745152 0.45453802 0.60999835 1.0694693e-38
0.37020946 0.45465386 0.60999829 1.0694693e-38
0.37312794 0.45439935 0.60999829 1.0694693e-38
0.37606233 0.45414346 0.60999823 1.0694693e-38
0.37901282 0.45460549 0.60999823 1.0694693e-38
0.38197947 0.45434874 0.60999823 1.0694693e-38
0.38496244 0.45481491 0.60999829 1.0694693e-38
0.38796189 0.45455736 0.60999823 1.0694693e-38
0.39097792 0.45429838 0.60999823 1.0694693e-38
0.39385861 0.45441562 0.60999823 1.0694693e-38
0.3970603 0.45450738 0.60999823 1.0694693e-38
0.40012699 0.45424607 0.60999823 1.0694693e-38
0.40321076 0.45471978 0.60999823 1.0694693e-38
0.40631187 0.45445764 0.60999823 1.0694693e-38
0.40943044 0.45419401 0.60999823 1.0694693e-38
0.4125666 0.45467046 0.60999823 1.0694693e-38
0.41572049 0.45440596 0.60999823 1.0694693e-38
0.41889223 0.45488679 0.60999823 1.0694693e-38
0.42208207 0.4546214 0.60999823 1.0694693e-38
0.4244858 0.45404607 0.60999823 1.0694693e-38
0.42690104 0.45421991 0.60999817 1.0694693e-38
0.43013665 0.45470506 0.60999817 1.0694693e-38
0.43339086 0.45443648 0.60999817 1.0694693e-38
0.43666387 0.45416629 0.60999811 1.0694693e-38
0.43995571 0.4546544 0.60999811 1.0694693e-38
0.44243658 0.45483258 0.60999811 1.0694693e-38
0.44492936 0.45424771 0.60999811 1.0694693e-38
0.44826931 0.45473963 0.60999817 1.0694693e-38
0.45162874 0.45446682 0.60999811 1.0694693e-38
0.45472541 0.45460072 0.60999811 1.0694693e-38
0.45755386 0.45437124 0.6099993 1.0602497e-38
0.46011311 0.45455086 0.6099993 1.0602497e-38
0.4635421 0.45427465 0.6099993 1.0602497e-38
0.46699142 0.45477578 0.6099993 1.0602497e-38
0.4695912 0.45417774 0.60999942 1.0602497e-38
0.47220379 0.45435882 0.60999936 1.0602497e-38
0.47570467 0.45486391 0.60999942 1.0602497e-38
0.47834337 0.4542616 0.60999948 1.0602497e-38
0.48099524 0.45444423 0.60999942 1.0602497e-38
0.48425174 0.4545815 0.60999948 1.0602497e-38
0.4872272 0.45434672 0.60999954 1.0602497e-38
0.48991919 0.45453092 0.60999954 1.0602497e-38
0.4932251 0.45466948 0.60999954 1.0602497e-38
0.49624586 0.45443317 0.60999948 1.0602497e-38
0.49897879 0.45461893 0.60999954 1.0602497e-38
0.50264132 0.45433363 0.6099996 1.0602497e-38
0.50540221 0.45452088 0.60999954 1.0602497e-38
0.50817722 0.45470828 0.60999966 1.0602497e-38
0.51189607 0.4544211 0.60999966 1.0602497e-38
0.51469958 0.45460996 0.60999972 1.0602497e-38
0.51783115 0.45436919 0.60999966 1.0602497e-38
0.520347 0.45498964 0.60999972 1.0602497e-38
0.52319115 0.45436528 0.60999972 1.0602497e-38
0.5273217 0.454458 0.60999978 1.0602497e-38
0.52987683 0.45508349 0.60999984 1.0602497e-38
0.53276551 0.45445448 0.60999978 1.0602497e-38
0.53566629 0.45464605 0.60999984 1.0602497e-38
0.53825766 0.45445028 0.6099999 1.0602497e-38
0.54151046 0.4542045 0.60999984 1.0602497e-38
0.5444541 0.45439672 0.60999984 1.0602497e-38
0.54741007 0.45459062 0.6099999 1.0602497e-38
0.55071259 0.45434332 0.6099999 1.0602497e-38
0.55336595 0.45498046 0.6099999 1.0602497e-38
0.55636603 0.45433921 0.6099999 1.0602497e-38
0.5593788 0.45453417 0.60999995 1.0602497e-38
0.56240773 0.45473063 0.60999995 1.0602497e-38
0.56544954 0.45408353 0.61000001 1.0602497e-38
0.56816715 0.45472756 0.61000001 1.0602497e-38
0.57157898 0.45447659 0.61000001 1.0602497e-38
0.5750106 0.45422414 0.61000007 1.0602497e-38
0.57776797 0.45487344 0.61000013 1.0602497e-38
0.58088589 0.45421937 0.61000013 1.0602497e-38
0.5840174 0.45441788 0.61000013 1.0602497e-38
0.58611411 0.45426503 0.61000019 1.0602497e-38
0.58927286 0.45446432 0.61000019 1.0602497e-38
0.59244549 0.45466542 0.61000019 1.0602497e-38
0.59599072 0.45440936 0.61000019 1.0602497e-38
0.5988394 0.45506975 0.61000019 1.0602497e-38
0.60098475 0.4540486 0.61000025 1.0602497e-38
0.6038571 0.45471063 0.61000031 1.0602497e-38
0.60746354 0.45445257 0.61000031 1.0602497e-38
0.61109155 0.45419297 0.61000031 1.0602497e-38
0.614007 0.45486051 0.61000031 1.0602497e-38
0.61620271 0.45470488 0.61000037 1.0602497e-38
0.61914259 0.45449641 0.61000037 1.0602497e-38
0.62283403 0.45423469 0.61000043 1.0602497e-38
0.62505931 0.45496053 0.61000043 1.0602497e-38
0.62841219 0.45428252 0.61000049 1.0602497e-38
0.63178021 0.45448852 0.61000049 1.0602497e-38
0.63403565 0.45433012 0.61000049 1.0602497e-38
0.63743412 0.45453697 0.61000049 1.0602497e-38
0.64084798 0.45474574 0.61000055 1.0602497e-38
0.64313424 0.45458674 0.61000055 1.0602497e-38
0.64619559 0.45437375 0.61000055 1.0602497e-38
0.65003997 0.45410633 0.61000061 1.0602497e-38
0.65235758 0.45484686 0.61000067 1.0602497e-38
0.65468323 0.45468664 0.61000061 1.0602497e-38
0.65779746 0.45447206 0.61000067 1.0602497e-38
0.6617083 0.45420259 0.61000067 1.0602497e-38
0.66406614 0.45494968 0.61000073 1.0602497e-38
0.66801506 0.45468029 0.61000067 1.0602497e-38
0.67118895 0.45446366 0.61000073 1.0602497e-38
0.67357969 0.45430052 0.61000073 1.0602497e-38
0.6759789 0.45505434 0.61000073 1.0602497e-38
0.67959428 0.45435047 0.61000085 1.0602497e-38
0.68322664 0.45456457 0.61000085 1.0602497e-38
0.68565959 0.45440018 0.61000091 1.0602497e-38
0.68810111 0.45423526 0.61000085 1.0602497e-38
0.69055122 0.4540697 0.61000091 1.0602497e-38
0.6938324 0.45477736 0.61000085 1.0602497e-38
0.69795352 0.45450163 0.61000091 1.0602497e-38
0.70043844 0.45433539 0.61000097 1.0602497e-38
0.70293224 0.4541685 0.61000097 1.0602497e-38
0.70627213 0.45488271 0.61000103 1.0602497e-38
0.7104671 0.45460486 0.61000103 1.0602497e-38
0.71299672 0.45443732 0.61000103 1.0602497e-38
0.7155354 0.45426914 0.61000109 1.0602497e-38
0.7180832 0.45504591 0.61000109 1.0602497e-38
0.72064024 0.45487827 0.61000103 1.0602497e-38
0.72406489 0.45465365 0.61000109 1.0602497e-38
0.72836661 0.4543716 0.61000115 1.0602497e-38
0.73096091 0.45420152 0.61000115 1.0602497e-38
0.73356444 0.45403075 0.61000121 1.0602497e-38
0.73617756 0.454817 0.61000115 1.0602497e-38
0.73880017 0.45464677 0.61000115 1.0602497e-38
0.74143225 0.45447591 0.61000127 1.0602497e-38
0.7458418 0.45418975 0.61000127 1.0602497e-38
0.74938685 0.45492598 0.61000127 1.0602497e-38
0.75205785 0.45475435 0.61000133 1.0602497e-38
0.75473875 0.45458218 0.61000133 1.0602497e-38
0.7574296 0.45440936 0.61000133 1.0602497e-38
0.76013029 0.45423582 0.61000139 1.0602497e-38
0.76284105 0.45406169 0.61000139 1.0602497e-38
0.76556182 0.45486403 0.61000139 1.0602497e-38
0.76829278 0.4546904 0.61000144 1.0602497e-38
0.77286816 0.4543995 0.61000144 1.0602497e-38
0.7765469 0.45416564 0.6100015 1.0602497e-38
0.77931887 0.45398939 0.6100015 1.0602497e-38
0.78210127 0.45480061 0.61000156 1.0602497e-38
0.78489417 0.45462489 0.61000156 1.0602497e-38
0.78769761 0.45444855 0.61000162 1.0602497e-38
0.79051161 0.45427155 0.61000156 1.0602497e-38
0.79333627 0.45409384 0.61000162 1.0602497e-38
0.79617161 0.45491296 0.61000162 1.0602497e-38
0.79901779 0.45473582 0.61000168 1.0602497e-38
0.80187476 0.45455801 0.61000162 1.0602497e-38
0.80474257 0.4543795 0.61000168 1.0602497e-38
0.80762142 0.45420033 0.61000168 1.0602497e-38
0.81051123 0.45402044 0.61000168 1.0602497e-38
0.81341213 0.45484883 0.61000174 1.0602497e-38
0.81632423 0.45466951 0.61000174 1.0602497e-38
0.81924754 0.45448953 0.61000174 1.0602497e-38
0.82218206 0.45430878 0.61000186 1.0602497e-38
0.82512802 0.45412743 0.6100018 1.0602497e-38
0.8280853 0.45496404 0.6100018 1.0602497e-38
0.83105403 0.4547832 0.6100018 1.0602497e-38
0.83403426 0.45460165 0.61000186 1.0602497e-38
0.83702624 0.4544194 0.61000192 1.0602497e-38
0.8400299 0.45423645 0.61000192 1.0602497e-38
0.84304512 0.45405278 0.61000192 1.0602497e-38
0.84607232 0.4548991 0.61000198 1.0602497e-38
0.84911132 0.45471597 0.61000198 1.0602497e-38
0.85216236 0.45453224 0.61000192 1.0602497e-38
0.85522532 0.45434767 0.61000204 1.0602497e-38
0.85830045 0.45416236 0.61000204 1.0602497e-38
0.86138773 0.45397639 0.6100021 1.0602497e-38
0.28710723 0.45761904 0.60999846 1.0694693e-38
0.28959051 0.45739174 0.60999846 1.0694693e-38
0.29276651 0.45757446 0.6099984 1.0694693e-38
0.29585344 0.45748299 0.60999846 1.0694693e-38
0.2982541 0.45759809 0.60999846 1.0694693e-38
0.30161348 0.45743722 0.6099984 1.0694693e-38
0.30462727 0.45769143 0.60999846 1.0694693e-38
0.30719933 0.45746031 0.6099984 1.0694693e-38
0.31043375 0.45750651 0.60999846 1.0694693e-38
0.31368729 0.45755357 0.60999846 1.0694693e-38
0.31630594 0.45732 0.60999846 1.0694693e-38
0.31941026 0.45757756 0.6099984 1.0694693e-38
0.32291189 0.45741323 0.6099984 1.0694693e-38
0.32544464 0.45753083 0.6099984 1.0694693e-38
0.32825866 0.45762545 0.60999835 1.0694693e-38
0.33162951 0.45744419 0.60999829 1.0694693e-38
0.33488488 0.4573887 0.60999835 1.0694693e-38
0.33775097 0.45748377 0.60999835 1.0694693e-38
0.34063277 0.45757979 0.60999835 1.0694693e-38
0.34325403 0.45770037 0.60999835 1.0694693e-38
0.34602749 0.45746034 0.60999835 1.0694693e-38
0.3495158 0.45750895 0.60999835 1.0694693e-38
0.35302591 0.45755726 0.60999835 1.0694693e-38
0.35585147 0.45731461 0.60999835 1.0694693e-38
0.35854983 0.45743579 0.60999835 1.0694693e-38
0.36154824 0.45753315 0.60999829 1.0694693e-38
0.36441973 0.4572885 0.60999835 1.0694693e-38
0.36730677 0.45775503 0.60999835 1.0694693e-38
0.37020946 0.45750964 0.60999829 1.0694693e-38
0.37312794 0.45726287 0.60999829 1.0694693e-38
0.37591523 0.45738587 0.60999823 1.0694693e-38
0.37901276 0.45748472 0.60999835 1.0694693e-38
0.38212815 0.45758462 0.60999829 1.0694693e-38
0.38496247 0.45770997 0.60999835 1.0694693e-38
0.38796189 0.4574604 0.60999823 1.0694693e-38
0.39097792 0.45720947 0.60999823 1.0694693e-38
0.39401069 0.45768636 0.60999823 1.0694693e-38
0.39706028 0.45743468 0.60999823 1.0694693e-38
0.40028071 0.45753607 0.60999823 1.0694693e-38
0.40321073 0.45766348 0.60999823 1.0694693e-38
0.40631184 0.45740956 0.60999823 1.0694693e-38
0.40943044 0.45715421 0.60999823 1.0694693e-38
0.41256654 0.45763904 0.60999823 1.0694693e-38
0.41572046 0.45738292 0.60999823 1.0694693e-38
0.41889226 0.45787221 0.60999823 1.0694693e-38
0.42208207 0.45761532 0.60999823 1.0694693e-38
0.4244858 0.45704642 0.60999823 1.0694693e-38
0.42690104 0.45722669 0.60999817 1.0694693e-38
0.43013662 0.4577204 0.60999823 1.0694693e-38
0.43339086 0.45746046 0.60999817 1.0694693e-38
0.43666384 0.45719904 0.60999811 1.0694693e-38
0.43995571 0.4576959 0.60999811 1.0694693e-38
0.44243658 0.45788071 0.60999811 1.0694693e-38
0.44492939 0.45730248 0.60999811 1.0694693e-38
0.44854847 0.45739856 0.60999817 1.0694693e-38
0.45162874 0.45753938 0.60999817 1.0694693e-38
0.45500785 0.45727399 0.60999811 1.0694693e-38
0.45755386 0.45668751 0.6099993 1.0602497e-38
0.46096784 0.45641822 0.6099993 1.0602497e-38
0.4635421 0.4566029 0.6099993 1.0602497e-38
0.46612656 0.45678908 0.6099993 1.0602497e-38
0.4695912 0.45651805 0.60999942 1.0602497e-38
0.47220382 0.45670435 0.60999936 1.0602497e-38
0.47482687 0.45689213 0.60999942 1.0602497e-38
0.47834337 0.45661938 0.60999948 1.0602497e-38
0.48188096 0.45634508 0.60999942 1.0602497e-38
0.48454875 0.4565329 0.60999948 1.0602497e-38
0.4872272 0.45672226 0.60999954 1.0602497e-38
0.49081832 0.45644617 0.60999954 1.0602497e-38
0.49352661 0.45663565 0.60999954 1.0602497e-38
0.49624586 0.45682675 0.60999948 1.0602497e-38
0.49989164 0.45654881 0.60999954 1.0602497e-38
0.50355977 0.4562692 0.6099996 1.0602497e-38
0.50540221 0.45693272 0.60999954 1.0602497e-38
0.50910407 0.456653 0.60999966 1.0602497e-38
0.51282871 0.45637161 0.60999966 1.0602497e-38
0.51469958 0.45704037 0.60999972 1.0602497e-38
0.51751745 0.45642364 0.60999966 1.0602497e-38
0.52319115 0.45681262 0.60999972 1.0602497e-38
0.52700305 0.45652843 0.60999978 1.0602497e-38
0.53180057 0.45658118 0.60999978 1.0602497e-38
0.53566629 0.45629424 0.60999984 1.0602497e-38
0.53858232 0.45649049 0.6099999 1.0602497e-38
0.54151046 0.4566884 0.60999984 1.0602497e-38
0.54543734 0.45639956 0.6099999 1.0602497e-38
0.54741007 0.45708632 0.6099999 1.0602497e-38
0.55038172 0.45645311 0.6099999 1.0602497e-38
0.55636597 0.45685279 0.6099999 1.0602497e-38
0.5593788 0.45621389 0.60999995 1.0602497e-38
0.56139594 0.45690811 0.61000001 1.0602497e-38
0.56544954 0.45661527 0.61000001 1.0602497e-38
0.56952929 0.45632064 0.61000007 1.0602497e-38
0.57157898 0.45702058 0.61000001 1.0602497e-38
0.5746668 0.45637491 0.61000007 1.0602497e-38
0.58088589 0.45678198 0.61000013 1.0602497e-38
0.5840174 0.45613045 0.61000013 1.0602497e-38
0.58611411 0.45683801 0.61000019 1.0602497e-38
0.5903281 0.45653927 0.61000019 1.0602497e-38
0.59563547 0.45659539 0.61000025 1.0602497e-38
0.60098475 0.45665133 0.61000025 1.0602497e-38
0.60529679 0.45634848 0.61000025 1.0602497e-38
0.60746354 0.4570682 0.61000031 1.0602497e-38
0.61072803 0.45640445 0.61000031 1.0602497e-38
0.61620271 0.45646024 0.61000037 1.0602497e-38
0.61951101 0.45666969 0.61000037 1.0602497e-38
0.62283403 0.45688105 0.61000043 1.0602497e-38
0.62729204 0.45657384 0.61000043 1.0602497e-38
0.63178021 0.45626462 0.61000049 1.0602497e-38
0.63403565 0.45699883 0.61000049 1.0602497e-38
0.63856959 0.45668948 0.61000049 1.0602497e-38
0.64313424 0.45637798 0.61000055 1.0602497e-38
0.64657927 0.45659146 0.61000055 1.0602497e-38
0.65003997 0.45680702 0.61000061 1.0602497e-38
0.65468323 0.45649326 0.61000061 1.0602497e-38
0.65935856 0.45617735 0.61000067 1.0602497e-38
0.6617083 0.45692658 0.61000067 1.0602497e-38
0.6664322 0.4566105 0.61000067 1.0602497e-38
0.67118895 0.45629227 0.61000073 1.0602497e-38
0.67357969 0.45704818 0.61000073 1.0602497e-38
0.67838633 0.45672983 0.61000085 1.0602497e-38
0.68322664 0.45640922 0.61000085 1.0602497e-38
0.68565959 0.45717198 0.61000091 1.0602497e-38
0.68810111 0.45608634 0.61000085 1.0602497e-38
0.69055122 0.45685124 0.61000091 1.0602497e-38
0.69547737 0.45652825 0.61000091 1.0602497e-38
0.70043844 0.45620292 0.61000097 1.0602497e-38
0.70293224 0.4569748 0.61000097 1.0602497e-38
0.70794654 0.45664936 0.61000103 1.0602497e-38
0.71299672 0.45632154 0.61000103 1.0602497e-38
0.7155354 0.45710063 0.61000109 1.0602497e-38
0.72064024 0.45677269 0.61000103 1.0602497e-38
0.72578186 0.45644236 0.61000115 1.0602497e-38
0.73096091 0.4561097 0.61000115 1.0602497e-38
0.73356444 0.45689821 0.61000121 1.0602497e-38
0.73880017 0.45656538 0.61000115 1.0602497e-38
0.75205785 0.45669061 0.61000133 1.0602497e-38
0.7574296 0.45635277 0.61000133 1.0602497e-38
0.76013029 0.4571563 0.61000139 1.0602497e-38
0.76284105 0.45601225 0.61000139 1.0602497e-38
0.76556182 0.45681822 0.61000139 1.0602497e-38
0.77103394 0.45647764 0.61000139 1.0602497e-38
0.7765469 0.4561345 0.6100015 1.0602497e-38
0.78489423 0.45660496 0.6100015 1.0602497e-38
0.79051161 0.45625901 0.61000156 1.0602497e-38
0.79333627 0.45708066 0.61000162 1.0602497e-38
0.79901779 0.4567346 0.61000168 1.0602497e-38
0.80474257 0.45638585 0.61000168 1.0602497e-38
0.81051123 0.45603448 0.61000168 1.0602497e-38
0.81341213 0.45686674 0.61000174 1.0602497e-38
0.81924754 0.45651525 0.61000174 1.0602497e-38
0.82512802 0.45616096 0.6100018 1.0602497e-38
0.8280853 0.45700151 0.6100018 1.0602497e-38
0.83403426 0.45664704 0.61000186 1.0602497e-38
0.8400299 0.45628983 0.61000192 1.0602497e-38
0.84304512 0.45713884 0.61000192 1.0602497e-38
0.84911132 0.45678145 0.61000198 1.0602497e-38
0.85522532 0.45642126 0.61000204 1.0602497e-38
0.28698343 0.46059406 0.60999846 1.0694693e-38
0.28946605 0.46037427 0.60999846 1.0694693e-38
0.2924087 0.46063405 0.6099984 1.0694693e-38
0.29572743 0.4604843 0.60999846 1.0694693e-38
0.29812747 0.46060619 0.60999846 1.0694693e-38
0.30124927 0.46052405 0.6099984 1.0694693e-38
0.30462727 0.4603726 0.60999846 1.0694693e-38
0.3070704 0.46049529 0.6099984 1.0694693e-38
0.3104336 0.46065259 0.60999846 1.0694693e-38
0.31368729 0.46025884 0.60999846 1.0694693e-38
0.31617466 0.46038237 0.60999846 1.0694693e-38
0.31959894 0.46054068 0.60999846 1.0694693e-38
0.32277888 0.46049547 0.60999846 1.0694693e-38
0.3255783 0.46059793 0.6099984 1.0694693e-38
0.32825866 0.46036953 0.6099984 1.0694693e-38
0.33162934 0.46042675 0.60999835 1.0694693e-38
0.33502102 0.46048391 0.6099984 1.0694693e-38
0.33788776 0.46058798 0.60999835 1.0694693e-38
0.34049517 0.46071577 0.60999835 1.0694693e-38
0.34325403 0.46048439 0.60999835 1.0694693e-38
0.34602749 0.46025175 0.60999835 1.0694693e-38
0.34931591 0.46052605 0.60999835 1.0694693e-38
0.35302588 0.46036729 0.60999835 1.0694693e-38
0.35570982 0.46049589 0.60999835 1.0694693e-38
0.35869223 0.46060163 0.60999835 1.0694693e-38
0.36154824 0.46036589 0.60999835 1.0694693e-38
0.3645637 0.46047235 0.60999835 1.0694693e-38
0.36730677 0.46060309 0.60999829 1.0694693e-38
0.37020946 0.46036541 0.60999835 1.0694693e-38
0.37298161 0.4604961 0.60999829 1.0694693e-38
0.37606233 0.46060354 0.60999823 1.0694693e-38
0.37901276 0.46036392 0.60999835 1.0694693e-38
0.38197944 0.46084529 0.60999829 1.0694693e-38
0.38496244 0.46060506 0.60999829 1.0694693e-38
0.38796189 0.46036345 0.60999823 1.0694693e-38
0.3908267 0.46049634 0.60999823 1.0694693e-38
0.39401069 0.46060556 0.60999823 1.0694693e-38
0.39706028 0.46036196 0.60999823 1.0694693e-38
0.40012696 0.46085137 0.60999823 1.0694693e-38
0.40321073 0.46060711 0.60999823 1.0694693e-38
0.40631181 0.46036148 0.60999823 1.0694693e-38
0.40943044 0.46011445 0.60999823 1.0694693e-38
0.41256654 0.46060765 0.60999823 1.0694693e-38
0.41572043 0.46035987 0.60999823 1.0694693e-38
0.41889226 0.46085763 0.60999823 1.0694693e-38
0.42208204 0.46060923 0.60999823 1.0694693e-38
0.4244858 0.46004674 0.60999823 1.0694693e-38
0.42690101 0.46023339 0.60999823 1.0694693e-38
0.43013662 0.46073577 0.60999823 1.0694693e-38
0.43339086 0.4604845 0.60999817 1.0694693e-38
0.43666381 0.46023175 0.60999823 1.0694693e-38
0.43995571 0.46073741 0.60999817 1.0694693e-38
0.44243652 0.4609288 0.60999823 1.0694693e-38
0.44492936 0.46035725 0.60999811 1.0694693e-38
0.44826931 0.46010157 0.60999817 1.0694693e-38
0.45162874 0.460612 0.60999817 1.0694693e-38
0.45500785 0.46035558 0.60999811 1.0694693e-38
0.2868596 0.46356788 0.60999846 1.0694693e-38
0.2893416 0.4633556 0.60999846 1.0694693e-38
0.29258749 0.46351945 0.60999846 1.0694693e-38
0.29560137 0.46348444 0.60999846 1.0694693e-38
0.2982541 0.46359211 0.60999846 1.0694693e-38
0.30143112 0.46365783 0.6099984 1.0694693e-38
0.304499 0.4633995 0.60999846 1.0694693e-38
0.30719933 0.46350789 0.6099984 1.0694693e-38
0.31043345 0.46357393 0.6099984 1.0694693e-38
0.3135567 0.46331304 0.60999846 1.0694693e-38
0.31630591 0.46342218 0.60999846 1.0694693e-38
0.31959873 0.46348852 0.6099984 1.0694693e-38
0.32291189 0.46355498 0.60999846 1.0694693e-38
0.32571197 0.46366626 0.6099984 1.0694693e-38
0.32839304 0.46344584 0.6099984 1.0694693e-38
0.33162954 0.46340919 0.6099984 1.0694693e-38
0.33515716 0.46358043 0.6099984 1.0694693e-38
0.33775091 0.46371529 0.60999835 1.0694693e-38
0.3404952 0.46349245 0.60999835 1.0694693e-38
0.34325403 0.4632684 0.60999835 1.0694693e-38
0.34588844 0.46340314 0.60999835 1.0694693e-38
0.3495158 0.46357653 0.6099984 1.0694693e-38
0.35288495 0.46353966 0.60999835 1.0694693e-38
0.35585147 0.46365365 0.60999835 1.0694693e-38
0.35869223 0.46342674 0.60999835 1.0694693e-38
0.36169142 0.46354151 0.60999835 1.0694693e-38
0.36441973 0.46367985 0.60999835 1.0694693e-38
0.36730677 0.46345115 0.60999835 1.0694693e-38
0.37020943 0.46322119 0.60999829 1.0694693e-38
0.37312794 0.46370542 0.60999829 1.0694693e-38
0.37606233 0.46347496 0.60999823 1.0694693e-38
0.3791607 0.46359175 0.60999835 1.0694693e-38
0.38197944 0.46373245 0.60999829 1.0694693e-38
0.38496247 0.46350014 0.60999835 1.0694693e-38
0.38796189 0.46326655 0.60999823 1.0694693e-38
0.39097792 0.46375892 0.60999823 1.0694693e-38
0.39401072 0.46352473 0.60999823 1.0694693e-38
0.3970603 0.46328926 0.60999823 1.0694693e-38
0.40012696 0.46378684 0.60999823 1.0694693e-38
0.40321076 0.46355075 0.60999823 1.0694693e-38
0.40631184 0.4633134 0.60999823 1.0694693e-38
0.40927401 0.46345633 0.60999823 1.0694693e-38
0.41256654 0.46357626 0.60999823 1.0694693e-38
0.41572043 0.46333688 0.60999823 1.0694693e-38
0.41889223 0.46384311 0.60999823 1.0694693e-38
0.42208207 0.46360314 0.60999823 1.0694693e-38
0.4244858 0.46304706 0.60999823 1.0694693e-38
0.42690104 0.46324012 0.60999823 1.0694693e-38
0.43013662 0.46375117 0.60999823 1.0694693e-38
0.43339086 0.46350855 0.60999817 1.0694693e-38
0.43666381 0.46326452 0.60999823 1.0694693e-38
0.43995571 0.46377891 0.60999823 1.0694693e-38
0.44243652 0.46397692 0.60999823 1.0694693e-38
0.44492939 0.46341199 0.60999811 1.0694693e-38
0.44826931 0.46316522 0.60999817 1.0694693e-38
0.45162874 0.46368456 0.60999817 1.0694693e-38
0.45500785 0.46343714 0.60999811 1.0694693e-38
0.28698343 0.46652055 0.60999846 1.0602497e-38
0.28959051 0.4666357 0.60999846 1.0694693e-38
0.29258734 0.46638933 0.6099984 1.0694693e-38
0.2957274 0.46646318 0.60999846 1.0694693e-38
0.29838076 0.46657926 0.60999846 1.0694693e-38
0.30143127 0.46655312 0.60999846 1.0694693e-38
0.30462727 0.4664048 0.60999846 1.0694693e-38
0.30732825 0.46652174 0.60999846 1.0694693e-38
0.3104336 0.46649528 0.60999846 1.0694693e-38
0.31381786 0.46667328 0.60999846 1.0694693e-38
0.31643718 0.46646318 0.60999846 1.0694693e-38
0.31959894 0.46643636 0.60999846 1.0694693e-38
0.32304487 0.46661574 0.60999846 1.0694693e-38
0.3255783 0.46675652 0.6099984 1.0694693e-38
0.32825866 0.46654421 0.60999846 1.0694693e-38
0.33182281 0.46640944 0.6099984 1.0694693e-38
0.33502102 0.46669909 0.6099984 1.0694693e-38
0.33775091 0.46648467 0.6099984 1.0694693e-38
0.3404952 0.46626908 0.60999835 1.0694693e-38
0.34311572 0.46641102 0.60999835 1.0694693e-38
0.34602749 0.46653196 0.60999835 1.0694693e-38
0.3495158 0.46637717 0.6099984 1.0694693e-38
0.35302585 0.46668941 0.60999835 1.0694693e-38
0.35585144 0.46647125 0.60999835 1.0694693e-38
0.35883465 0.46659431 0.60999835 1.0694693e-38
0.36154819 0.46674001 0.60999835 1.0694693e-38
0.3644197 0.46652019 0.60999835 1.0694693e-38
0.36730677 0.46629921 0.60999835 1.0694693e-38
0.3700639 0.46644482 0.60999829 1.0694693e-38
0.37312794 0.46656901 0.60999829 1.0694693e-38
0.37606233 0.46634632 0.60999829 1.0694693e-38
0.37901279 0.46684271 0.60999835 1.0694693e-38
0.38197944 0.46661961 0.60999829 1.0694693e-38
0.38496244 0.46639523 0.60999829 1.0694693e-38
0.38796186 0.4661696 0.60999835 1.0694693e-38
0.39097789 0.46667001 0.60999835 1.0694693e-38
0.39401066 0.4664439 0.60999829 1.0694693e-38
0.39721322 0.46657139 0.60999823 1.0694693e-38
0.40012693 0.46672231 0.60999823 1.0694693e-38
0.40321076 0.46649444 0.60999823 1.0694693e-38
0.40631181 0.46626532 0.60999823 1.0694693e-38
0.40943038 0.4667744 0.60999823 1.0694693e-38
0.41256654 0.46654481 0.60999823 1.0694693e-38
0.41572043 0.46631384 0.60999823 1.0694693e-38
0.41889223 0.46682853 0.60999823 1.0694693e-38
0.42208204 0.46659708 0.60999823 1.0694693e-38
0.4244858 0.46604738 0.60999823 1.0694693e-38
0.42690104 0.46624684 0.60999823 1.0694693e-38
0.43013662 0.46676648 0.60999823 1.0694693e-38
0.43339086 0.46653253 0.60999817 1.0694693e-38
0.43666381 0.46629727 0.60999823 1.0694693e-38
0.44023085 0.4664208 0.60999823 1.0694693e-38
0.44243652 0.46702501 0.60999823 1.0694693e-38
0.44492936 0.46646678 0.60999811 1.0694693e-38
0.44826931 0.46622887 0.60999811 1.0694693e-38
0.45162874 0.46675718 0.60999817 1.0694693e-38
0.45500785 0.46651876 0.60999817 1.0694693e-38
0.28710723 0.46947441 0.60999846 1.0602497e-38
0.28946602 0.46961707 0.60999846 1.0602497e-38
0.29276648 0.46949762 0.6099984 1.0602497e-38
0.29585344 0.46944314 0.60999846 1.0694693e-38
0.2982541 0.46958697 0.60999846 1.0694693e-38
0.30161342 0.46946639 0.6099984 1.0694693e-38
0.30475551 0.46941131 0.60999846 1.0694693e-38
0.3071993 0.46955639 0.60999846 1.0694693e-38
0.31061909 0.46943459 0.6099984 1.0694693e-38
0.31368726 0.4697274 0.60999846 1.0694693e-38
0.31630591 0.46952522 0.60999846 1.0694693e-38
0.31978774 0.46940225 0.6099984 1.0694693e-38
0.32291189 0.46969762 0.60999846 1.0694693e-38
0.3255783 0.46949351 0.6099984 1.0694693e-38
0.32825866 0.46928829 0.60999846 1.0694693e-38
0.3314364 0.46958575 0.6099984 1.0694693e-38
0.33502102 0.4694612 0.6099984 1.0694693e-38
0.33775091 0.46925402 0.60999835 1.0694693e-38
0.3403576 0.46940303 0.6099984 1.0694693e-38
0.34325403 0.46953201 0.60999835 1.0694693e-38
0.34602749 0.46932337 0.6099984 1.0694693e-38
0.34951562 0.46941128 0.6099984 1.0694693e-38
0.35302585 0.46949947 0.60999835 1.0694693e-38
0.35599309 0.46963072 0.6099984 1.0694693e-38
0.35869223 0.46978375 0.60999835 1.0694693e-38
0.36154819 0.46957275 0.60999835 1.0694693e-38
0.3644197 0.46936059 0.60999835 1.0694693e-38
0.36716205 0.46951371 0.60999835 1.0694693e-38
0.37020946 0.46964628 0.60999835 1.0694693e-38
0.37312788 0.46943253 0.60999835 1.0694693e-38
0.37620944 0.46956617 0.60999835 1.0694693e-38
0.37901279 0.46972197 0.60999835 1.0694693e-38
0.38197944 0.46950674 0.60999829 1.0694693e-38
0.38496244 0.46929026 0.60999835 1.0694693e-38
0.38781148 0.46944612 0.60999835 1.0694693e-38
0.39097786 0.46958107 0.60999835 1.0694693e-38
0.39401066 0.46936306 0.60999829 1.0694693e-38
0.39706028 0.46987617 0.60999823 1.0694693e-38
0.40012693 0.46965775 0.60999823 1.0694693e-38
0.40321076 0.46943808 0.60999829 1.0694693e-38
0.40631184 0.46921724 0.60999823 1.0694693e-38
0.40943038 0.46973467 0.60999823 1.0694693e-38
0.41256651 0.46951339 0.60999823 1.0694693e-38
0.41572043 0.46929085 0.60999823 1.0694693e-38
0.41889226 0.46981394 0.60999823 1.0694693e-38
0.42208204 0.46959096 0.60999823 1.0694693e-38
0.42448577 0.46904767 0.60999823 1.0694693e-38
0.42690104 0.46925363 0.60999823 1.0694693e-38
0.43013662 0.46978188 0.60999823 1.0694693e-38
0.43339086 0.4695566 0.60999817 1.0694693e-38
0.43666381 0.46933001 0.60999823 1.0694693e-38
0.43995571 0.46910211 0.60999823 1.0694693e-38
0.44243652 0.47007313 0.60999823 1.0694693e-38
0.44492936 0.46952149 0.60999817 1.0694693e-38
0.44826934 0.46929252 0.60999811 1.0694693e-38
0.45190954 0.46942684 0.60999817 1.0694693e-38
0.45500785 0.46960032 0.60999817 1.0694693e-38
0.28698343 0.47244793 0.60999846 1.0602497e-38
0.2893416 0.47259727 0.60999846 1.0602497e-38
0.29240867 0.47255298 0.6099984 1.0602497e-38
0.29572737 0.47244292 0.60999846 1.0602497e-38
0.29812747 0.47259361 0.60999846 1.0602497e-38
0.30124927 0.47254887 0.6099984 1.0694693e-38
0.30462724 0.47243786 0.60999846 1.0694693e-38
0.30707037 0.47258982 0.60999846 1.0694693e-38
0.31024835 0.47254473 0.6099984 1.0694693e-38
0.31368726 0.47243273 0.60999846 1.0694693e-38
0.31617466 0.47258607 0.60999846 1.0694693e-38
0.31941026 0.47254053 0.6099984 1.0694693e-38
0.32291189 0.47242749 0.60999846 1.0694693e-38
0.32544461 0.47258219 0.60999846 1.0694693e-38
0.32812428 0.47238508 0.60999846 1.0694693e-38
0.33162954 0.47258607 0.6099984 1.0694693e-38
0.33488488 0.47257823 0.6099984 1.0694693e-38
0.33761406 0.4723793 0.60999835 1.0694693e-38
0.34049517 0.47251618 0.6099984 1.0694693e-38
0.34325403 0.472316 0.60999835 1.0694693e-38
0.34616652 0.47245389 0.6099984 1.0694693e-38
0.3495158 0.4724454 0.6099984 1.0694693e-38
0.35302585 0.47230953 0.6099984 1.0694693e-38
0.35585144 0.47281122 0.60999835 1.0694693e-38
