# .PCD v0.7 - Point Cloud Data file format
VERSION 0.7
FIELDS x y z rgb
SIZE 4 4 4 4
TYPE F F F F
COUNT 1 1 1 1
WIDTH 999
HEIGHT 1
VIEWPOINT 0 0 0 1 0 0 0
POINTS 999
DATA ascii
0.53834838 -0.21426451 0.68851078 1.1801041e-38
0.53853798 -0.21124029 0.68826032 1.1801041e-38
0.53869826 -0.20838262 0.68847173 1.1801041e-38
0.53892922 -0.20496029 0.68901312 1.1801041e-38
0.53906274 -0.20190828 0.68883705 1.1801041e-38
0.53921866 -0.19886413 0.68863142 1.1801041e-38
0.53937465 -0.19581819 0.6884256 1.1616651e-38
0.53953081 -0.19277042 0.68821967 8.5749461e-39
0.53964794 -0.19048347 0.68806517 4.3347122e-39
0.53976512 -0.18819538 0.68791056 3.0439874e-39
0.54016328 -0.1871528 0.68992138 2.8599577e-39
0.53988248 -0.18590638 0.68775594 2.9517932e-39
0.54027766 -0.18474491 0.6889258 2.8599577e-39
0.54073745 -0.18232995 0.68832129 2.8599577e-39
0.54147726 -0.17910177 0.68819475 2.8599577e-39
0.54222548 -0.17606556 0.68847966 2.8599577e-39
0.54282916 -0.17375302 0.68895662 2.8599577e-39
0.54312003 -0.17230025 0.68857586 2.8599577e-39
0.54376978 -0.16980629 0.68857008 2.8599577e-39
0.54442096 -0.16711256 0.68814117 2.8599577e-39
0.54537749 -0.16413537 0.68816078 2.9517946e-39
0.54625702 -0.16407 0.68954778 2.9517946e-39
0.54588562 -0.16196546 0.68749791 2.9517946e-39
0.54770839 -0.16019817 0.68867505 2.8599577e-39
0.55040467 -0.15730639 0.68839145 2.8599577e-39
0.55360395 -0.15666996 0.68891239 3.0443545e-39
0.55625802 -0.15701553 0.68930644 3.0443545e-39
0.53046983 -0.082290702 0.68757248 1.447471e-38
0.53227723 -0.082336612 0.68896425 1.4474712e-38
0.52682197 -0.07956332 0.68867135 1.299958e-38
0.52898788 -0.080450274 0.68956316 1.447435e-38
0.52313167 -0.07617791 0.68858612 1.1247865e-38
0.52041811 -0.073659651 0.68846828 1.0049324e-38
0.51789689 -0.071186885 0.68810451 9.0351717e-39
0.51533502 -0.068143837 0.6886611 8.9429761e-39
0.51224774 -0.06463632 0.68826425 8.9429761e-39
0.50879759 -0.06051936 0.68924797 8.9429761e-39
0.51015925 -0.062177315 0.68861997 8.9429761e-39
0.50595808 -0.057365783 0.6881249 9.4961499e-39
0.50736874 -0.058940016 0.68869716 8.9429761e-39
0.50331682 -0.054091327 0.68929714 1.1708844e-38
0.50463521 -0.055725921 0.68871099 1.1340062e-38
0.50072563 -0.047986902 0.68785763 1.1708482e-38
0.49947453 -0.044945605 0.6870783 1.1523361e-38
0.49742433 -0.041051108 0.68744862 1.1708483e-38
0.49700916 -0.037703976 0.68889934 9.6805383e-39
0.49927583 -0.035312932 0.68907124 9.9520791e-39
0.5021168 -0.032223705 0.6884402 1.04055e-38
0.50439394 -0.030043149 0.6890521 1.0318706e-38
0.50559407 -0.028605394 0.68863785 9.485706e-39
0.50707871 -0.027140215 0.68910444 1.0499495e-38
0.50894231 -0.025236128 0.68819386 1.0123871e-38
0.51212108 -0.022066394 0.68844062 1.0310423e-38
0.51444209 -0.019851752 0.68904614 1.0497334e-38
0.51608145 -0.018378388 0.68932992 1.0683526e-38
0.51767612 -0.01693802 0.68840653 1.0217507e-38
0.51931429 -0.015494101 0.68743145 9.8436845e-39
0.52095598 -0.014006324 0.68773228 1.0029875e-38
0.52253073 -0.012510199 0.68813044 1.0216787e-38
0.52410877 -0.011010945 0.68852943 1.0403338e-38
0.52569008 -0.0095085464 0.68892926 1.058989e-38
0.52727473 -0.0080029909 0.68932986 1.0776804e-38
0.52886277 -0.0064942781 0.68973136 1.0871161e-38
0.53072208 -0.0050515793 0.68723363 7.4534715e-39
0.53234571 -0.0035339072 0.68760186 4.2349482e-39
0.53397298 -0.0020128824 0.68797088 4.05128e-39
0.53567207 -0.00049144588 0.68825006 3.8679719e-39
0.53824115 0.0017977944 0.6886543 3.6846639e-39
0.54167944 0.0048629576 0.68919754 3.4095231e-39
0.54506731 0.0079453234 0.68983161 3.1347411e-39
0.54609072 0.008686699 0.68723029 4.0512814e-39
0.54778641 0.010239104 0.68756008 3.8679719e-39
0.54948604 0.011795177 0.68789065 3.7764994e-39
0.5512743 0.013353569 0.68811297 3.5931913e-39
0.55315638 0.014914974 0.68822145 3.5017159e-39
0.55504405 0.016481096 0.68833023 3.410242e-39
0.55693746 0.018051956 0.68843943 3.594992e-39
0.5588367 0.019627575 0.6885488 8.3869535e-39
0.56074154 0.021207977 0.6886586 1.1521573e-38
0.56265223 0.022793183 0.68876874 1.1615569e-38
0.56548297 0.025180338 0.68899357 1.1708845e-38
0.56932622 0.028647618 0.68881035 1.1429733e-38
0.57171983 0.030800186 0.68751323 1.1242102e-38
0.57345486 0.032412238 0.68788534 1.1428654e-38
0.57519388 0.03402802 0.68825835 1.1615563e-38
0.57693696 0.035647541 0.68863219 1.1708482e-38
0.57868409 0.037270822 0.68900692 1.1708842e-38
0.58043742 0.038897932 0.68937987 1.1708482e-38
0.58247662 0.040556014 0.68815041 1.1430093e-38
0.5849238 0.042197831 0.68895531 1.1708481e-38
0.58718055 0.043857794 0.6887418 1.1708482e-38
0.58944654 0.045524493 0.68852729 1.1708482e-38
0.46343029 0.19394286 0.68813771 8.1161063e-39
0.46600646 0.19345021 0.6876325 1.1432618e-38
0.45808402 0.19719359 0.68821055 6.1821757e-39
0.46055961 0.19576426 0.6891188 6.2743699e-39
0.45290887 0.20011422 0.68722391 6.1821757e-39
0.45445508 0.19942117 0.68869531 6.1821757e-39
0.44932365 0.20376331 0.68769413 6.1821757e-39
0.4510366 0.20153563 0.68845052 6.1821757e-39
0.4480294 0.20557758 0.68845332 6.1821757e-39
0.44599542 0.20877494 0.68866271 5.6286474e-39
0.44323471 0.21263698 0.68831128 2.2138456e-39
0.44413602 0.21139178 0.68816644 2.4904297e-39
0.44173566 0.21470588 0.68855602 2.1216514e-39
0.43966338 0.21759981 0.68886685 1.937623e-39
0.4374629 0.22080517 0.68852651 2.1220101e-39
0.4355627 0.22359014 0.68814355 2.6751783e-39
0.43380213 0.22651078 0.68841773 5.6286474e-39
0.4318271 0.23033279 0.68861723 6.2743699e-39
0.43250203 0.2290161 0.68881482 6.1821757e-39
0.43070486 0.23252456 0.68828899 7.1956018e-39
0.42845923 0.2368952 0.68764406 9.2217364e-39
0.42951715 0.23483098 0.68851268 8.3927002e-39
0.42790011 0.23871548 0.68858039 6.7339019e-39
0.42884636 0.24081947 0.6896317 6.1799995e-39
0.43018377 0.24293837 0.68740064 6.3629418e-39
0.43112701 0.24433993 0.68846524 6.2703846e-39
0.43203402 0.24572198 0.68958962 6.0863535e-39
0.43342233 0.24788292 0.68729138 5.9016007e-39
0.43433189 0.2492689 0.68841946 5.9012406e-39
0.43524122 0.25065452 0.6895473 5.9015993e-39
0.52283984 -0.32877314 0.6927861 2.2142085e-39
0.52224493 -0.32449311 0.69106078 2.6751993e-39
0.52180672 -0.32113689 0.69165599 2.8599577e-39
0.52200884 -0.32280278 0.69138145 2.8599577e-39
0.52160478 -0.31947225 0.69193035 2.8599577e-39
0.52123189 -0.31639892 0.69159174 2.8599577e-39
0.52094471 -0.31403196 0.69155979 2.8599577e-39
0.52101898 -0.31102636 0.69145918 2.8599577e-39
0.52169847 -0.30883861 0.69180304 2.8599577e-39
0.52217662 -0.30685624 0.69115353 2.8599577e-39
0.52297968 -0.30436969 0.69158363 2.8599577e-39
0.52388912 -0.30116338 0.69136626 2.8599577e-39
0.52462143 -0.29859731 0.69121951 2.8599577e-39
0.52512342 -0.29745382 0.69223034 2.8599577e-39
0.52560616 -0.29545549 0.69157946 2.8599577e-39
0.52644283 -0.29258162 0.69171727 2.8599577e-39
0.5271216 -0.29007581 0.69122618 3.3205715e-39
0.52781349 -0.28772271 0.69114077 7.0079973e-39
0.52825785 -0.28613812 0.69180864 1.1155677e-38
0.52860099 -0.28403717 0.69134867 1.1708845e-38
0.52910531 -0.2809495 0.69193876 1.1801041e-38
0.5294559 -0.27807841 0.69146955 1.1801041e-38
0.52998137 -0.27438277 0.69139838 1.1801041e-38
0.53041953 -0.27140307 0.69144469 1.1801041e-38
0.53085637 -0.26904351 0.69212675 1.1801041e-38
0.53120863 -0.26616034 0.69165707 1.1801041e-38
0.53164965 -0.26255062 0.69106895 1.1801041e-38
0.53216928 -0.25946257 0.69164014 1.1801041e-38
0.53250909 -0.25698128 0.69160938 1.1801041e-38
0.5330112 -0.2534619 0.69178528 1.1801041e-38
0.53343725 -0.24982747 0.69121921 1.1801041e-38
0.5338195 -0.24693669 0.69071126 1.1801041e-38
0.53400719 -0.24726041 0.69298834 1.1801041e-38
0.53425413 -0.24457049 0.69139773 1.1801041e-38
0.53478783 -0.24148357 0.69195509 1.1801041e-38
0.53528351 -0.23786801 0.6912989 1.1801041e-38
0.53568083 -0.23497044 0.69077301 1.1801041e-38
0.53609282 -0.23259144 0.69149077 1.1801041e-38
0.53655648 -0.22946559 0.69214243 1.1801041e-38
0.53691661 -0.2265425 0.69166744 1.1801041e-38
0.53709692 -0.22507927 0.69142962 1.1801041e-38
0.53736752 -0.22288239 0.6910727 1.1801041e-38
0.53772885 -0.21994984 0.69059622 1.1801041e-38
0.53805399 -0.21796614 0.69185114 1.1801041e-38
0.53844255 -0.21514133 0.69218242 1.1801041e-38
0.53880465 -0.21220332 0.69170666 1.1801041e-38
0.53905225 -0.20921063 0.69138128 1.1801041e-38
0.53918862 -0.20616649 0.69120204 1.1801041e-38
0.53947681 -0.20277624 0.69166452 1.1708845e-38
0.53967935 -0.19994184 0.69181931 1.1708845e-38
0.5397625 -0.19720457 0.69128948 1.1708845e-38
0.54005337 -0.19599731 0.69259077 1.1708845e-38
0.53981197 -0.19400583 0.69038296 9.03592e-39
0.54017031 -0.1937179 0.69243771 6.7310531e-39
0.53992903 -0.19172256 0.69022912 4.1503238e-39
0.54021984 -0.19051804 0.69153118 3.0439874e-39
0.5403499 -0.18798196 0.69136077 2.8599577e-39
0.54070073 -0.18461473 0.69174325 2.8599577e-39
0.54139537 -0.18138111 0.69167477 2.8599577e-39
0.54198152 -0.17868695 0.69132888 2.8599577e-39
0.5427286 -0.17565662 0.69161594 2.8599577e-39
0.5437271 -0.17485541 0.69283581 2.9517946e-39
0.54379272 -0.17274046 0.69149023 2.9517946e-39
0.54504645 -0.1699653 0.69162542 2.9517946e-39
0.54558003 -0.16695613 0.69042766 2.9517946e-39
0.54680711 -0.16662775 0.69219977 2.9517946e-39
0.54757512 -0.16397202 0.69162643 2.9517946e-39
0.54834503 -0.16131055 0.69105196 2.9517946e-39
0.54974395 -0.16025986 0.69260794 2.9517946e-39
0.55001467 -0.15838467 0.6914205 2.8599577e-39
0.52691633 -0.078605726 0.69108093 1.4566549e-38
0.52945006 -0.079564996 0.6914773 1.4566548e-38
0.53199136 -0.080525234 0.6918782 1.4566548e-38
0.52180755 -0.075056694 0.69165486 1.0879084e-38
0.52426112 -0.076757893 0.69212931 1.4566908e-38
0.52000612 -0.073384784 0.69157195 9.957128e-39
0.51765984 -0.07066492 0.69139671 8.9429761e-39
0.51523614 -0.067654654 0.69176531 8.9429761e-39
0.5117473 -0.063611358 0.6915043 8.9429761e-39
0.51311517 -0.065275699 0.69088191 8.9429761e-39
0.50894982 -0.060372628 0.69158208 8.9429761e-39
0.51038426 -0.061952546 0.69212675 8.9429761e-39
0.50621122 -0.057157569 0.69159436 9.3117586e-39
0.50753534 -0.058798179 0.69101363 8.9429761e-39
0.50489157 -0.055522218 0.69217527 1.1247867e-38
0.50279009 -0.053177878 0.69131768 1.1708482e-38
0.5003466 -0.050235957 0.69180268 1.1708482e-38
0.4965843 -0.043050811 0.691212 1.1616648e-38
0.49661103 -0.040517393 0.69202423 1.0880165e-38
0.49716866 -0.038638044 0.69037628 1.0603939e-38
0.49883828 -0.03790611 0.69182205 8.4805448e-39
0.50058389 -0.035055913 0.69061649 1.1707758e-38
0.50189185 -0.034799132 0.69216174 1.1892873e-38
0.50291222 -0.032893419 0.69114453 1.1893233e-38
0.50483853 -0.030966723 0.69140214 1.1893232e-38
0.50619447 -0.029261371 0.69161749 1.1800319e-38
0.50783497 -0.02758169 0.69144291 1.1800675e-38
0.50937337 -0.025650702 0.69099176 1.1708474e-38
0.51050115 -0.024195069 0.69069326 1.1428651e-38
0.51170051 -0.022695536 0.69156915 1.1708841e-38
0.51319581 -0.021265402 0.69077039 1.198543e-38
0.51459861 -0.019778091 0.69137394 1.1615923e-38
0.51625216 -0.018308591 0.69163674 1.1616282e-38
0.51788485 -0.016833525 0.69193435 1.1708481e-38
0.51938713 -0.015383553 0.69114769 1.1336097e-38
0.52099121 -0.013897704 0.69149685 1.1429373e-38
0.52259886 -0.012408532 0.69184679 1.1523009e-38
0.52403957 -0.010938749 0.69116265 1.1523725e-38
0.52569342 -0.0094442442 0.69146186 1.1616644e-38
0.52735114 -0.0079461578 0.69176179 1.1708842e-38
0.5290128 -0.0064444859 0.6920625 1.1616649e-38
0.53058505 -0.0049617821 0.69122374 8.1114498e-39
0.53226805 -0.0034522414 0.69150901 3.0436259e-39
0.53376603 -0.0019545648 0.69078237 3.0432671e-39
0.53481555 -0.0011806935 0.69191825 2.8599563e-39
0.5380311 0.0018467018 0.6914624 2.8599577e-39
0.54146206 0.004904503 0.69200939 2.8599577e-39
0.54493105 0.0079771616 0.69253212 2.8599577e-39
0.54765892 0.010277185 0.69151711 2.8599577e-39
0.54955423 0.011824427 0.69159216 2.8599577e-39
0.55145621 0.013376476 0.69166642 2.8599577e-39
0.55336416 0.014933371 0.69174087 2.8599577e-39
0.55527806 0.016495135 0.69181561 2.9521519e-39
0.55719793 0.018061791 0.6918906 3.3205715e-39
0.55913359 0.019633316 0.6919533 9.4043382e-39
0.56087345 0.02120935 0.69101393 1.1708845e-38
0.56208205 0.02200108 0.69200647 1.1708845e-38
0.56573856 0.02517556 0.69119275 1.1708482e-38
0.56847405 0.027567461 0.69155061 1.1708479e-38
0.57028413 0.029167539 0.69181502 1.1708842e-38
0.57188451 0.030777004 0.69108868 1.1616285e-38
0.5737049 0.032386445 0.69135332 1.1616284e-38
0.57553011 0.034000117 0.69161862 1.1524089e-38
0.57745939 0.035620444 0.6917634 1.1524089e-38
0.58050907 0.03806486 0.69180584 1.1616286e-38
0.58375514 0.040526003 0.69162703 1.1524451e-38
0.586555 0.042729814 0.69117254 1.1616286e-38
0.58854049 0.043825548 0.69212741 1.1340062e-38
0.59036541 0.045494281 0.6911934 1.1524451e-38
0.46332389 0.1938809 0.69175071 7.655131e-39
0.46680921 0.19445649 0.69157559 1.0602858e-38
0.45783779 0.19743004 0.69118583 6.1821757e-39
0.46062449 0.19558199 0.6920377 6.3662054e-39
0.45247072 0.20077497 0.69181448 6.1821757e-39
0.45482817 0.19934946 0.69113779 6.1821757e-39
0.45615584 0.19839799 0.69251287 6.1821757e-39
0.44955432 0.20324692 0.69123304 6.1821757e-39
0.450598 0.20204353 0.6908797 6.1821757e-39
0.44815907 0.20538843 0.69128442 6.1821757e-39
0.44598803 0.2088266 0.69127971 6.0896213e-39
0.44708592 0.20711519 0.69126111 6.1821757e-39
0.44359136 0.21214724 0.69165188 3.6911196e-39
0.44449434 0.21090674 0.69150257 4.7056219e-39
0.44239315 0.21379884 0.69184381 3.8751508e-39
0.439955 0.21721381 0.69144219 3.0450384e-39
0.43735027 0.22100663 0.69132751 2.7680942e-39
0.43821493 0.21976885 0.69122308 3.229787e-39
0.43484336 0.22474484 0.69150794 5.5364532e-39
0.43623853 0.22267199 0.6914013 3.7829551e-39
0.43349329 0.22683139 0.69154739 6.0899801e-39
0.43174428 0.22957201 0.69268698 6.1821757e-39
0.43264073 0.22860821 0.6912086 6.1821757e-39
0.43051705 0.23241226 0.69122821 6.5502365e-39
0.42877984 0.2357644 0.69149208 6.4584011e-39
0.42844242 0.23824657 0.69161701 6.1821757e-39
0.42865586 0.24021299 0.69257188 7.5629353e-39
0.4296844 0.24216232 0.69086272 6.1792792e-39
0.43050843 0.24349722 0.69211531 6.0870808e-39
0.43339401 0.2477943 0.69127566 5.9016021e-39
0.43763793 0.25232458 0.69085842 5.9016007e-39
0.52246583 -0.32739225 0.69455266 2.7673991e-39
0.5223189 -0.32535958 0.69349104 2.8599577e-39
0.5219152 -0.32203186 0.69403744 2.8599577e-39
0.52211696 -0.32369506 0.69376439 2.8599577e-39
0.52161276 -0.31953967 0.69444668 2.8599577e-39
0.52121007 -0.31622118 0.69499153 2.8599577e-39
0.52096194 -0.31298473 0.69448644 2.8599577e-39
0.52165484 -0.31041858 0.69438958 2.8599577e-39
0.52250624 -0.3075844 0.69449872 2.8599577e-39
0.52336144 -0.30474791 0.69460589 2.8599577e-39
0.52422994 -0.30131695 0.69406509 2.8599577e-39
0.52477384 -0.29963863 0.69522393 2.8599577e-39
0.52528 -0.29766348 0.69454396 2.8599577e-39
0.52595627 -0.29502416 0.69363546 2.8599577e-39
0.52665937 -0.29251689 0.6952123 2.8599577e-39
0.52750784 -0.28920627 0.69407672 2.9521519e-39
0.52825981 -0.28642946 0.69474983 9.03592e-39
0.52904063 -0.28336394 0.69454795 1.1801041e-38
0.52959651 -0.28016135 0.69464564 1.1801041e-38
0.52997518 -0.27746558 0.69456065 1.1801041e-38
0.5303542 -0.27476811 0.69447607 1.1801041e-38
0.53084964 -0.27152222 0.69465697 1.1801041e-38
0.53120118 -0.26864666 0.69418991 1.1801041e-38
0.53171986 -0.26556823 0.69475883 1.1801041e-38
0.53206491 -0.26268262 0.69430119 1.1801041e-38
0.53256327 -0.25959057 0.69489968 1.1801041e-38
0.53290236 -0.25669551 0.69445086 1.1801041e-38
0.53337497 -0.25342503 0.69466335 1.1801041e-38
0.53373891 -0.25070059 0.6946013 1.1801041e-38
0.5338369 -0.24871461 0.69321376 1.1801041e-38
0.53423619 -0.24760462 0.69520247 1.1801041e-38
0.53457904 -0.24469937 0.69475043 1.1801041e-38
0.53496307 -0.24181099 0.69424391 1.1801041e-38
0.53545934 -0.23854177 0.69442731 1.1801041e-38
0.53583646 -0.23581223 0.69434971 1.1801041e-38
0.53628123 -0.23268469 0.69502246 1.1801041e-38
0.53663969 -0.22977062 0.69455147 1.1801041e-38
0.53690922 -0.22758277 0.69419712 1.1801041e-38
0.53708923 -0.22612287 0.69396073 1.1801041e-38
0.53746855 -0.22373465 0.69471878 1.1801041e-38
0.53782719 -0.22081019 0.69424844 1.1801041e-38
0.53829157 -0.21768814 0.69489729 1.1801041e-38
0.5386492 -0.21475708 0.69442916 1.1801041e-38
0.53900731 -0.211822 0.69396031 1.1801041e-38
0.53946984 -0.20869653 0.69461107 1.1708845e-38
0.53972363 -0.20571008 0.69427955 1.1708845e-38
0.53966403 -0.20358783 0.69310045 1.1708845e-38
0.54006243 -0.20253098 0.69509375 1.1616651e-38
0.54021752 -0.19949941 0.69489151 1.1616651e-38
0.54037273 -0.19646606 0.69468904 1.060251e-38
0.540528 -0.1934309 0.6944865 4.7034905e-39
0.54068351 -0.19039398 0.69428372 2.8599577e-39
0.54083943 -0.18735544 0.69408023 2.8599577e-39
0.54122716 -0.18419877 0.69483006 2.8599577e-39
0.54191047 -0.18155229 0.6943596 2.8599577e-39
0.54272187 -0.17914078 0.69414222 2.9517946e-39
0.54314792 -0.17754871 0.69484347 2.8599577e-39
0.54404348 -0.17574662 0.69410139 2.8599577e-39
0.54522586 -0.1722929 0.69424409 2.8599577e-39
0.54659629 -0.16967809 0.69414842 2.8599577e-39
0.54743081 -0.1666697 0.69432724 2.8599577e-39
0.54860383 -0.16455466 0.6940735 2.8599577e-39
0.54906213 -0.1631524 0.69348443 2.9517946e-39
0.54967058 -0.16083515 0.69395792 2.8599577e-39
0.55136377 -0.15771864 0.69388074 2.8599577e-39
0.52488673 -0.076576181 0.69507223 1.1247867e-38
0.51986909 -0.073162869 0.69428766 9.6805411e-39
0.52221632 -0.074935697 0.69362998 1.392118e-38
0.51821667 -0.070955925 0.69485265 8.9429761e-39
0.51527351 -0.067476057 0.6942457 8.9429761e-39
0.51196778 -0.063382976 0.69500005 8.9429761e-39
0.51329446 -0.065036029 0.694435 8.9429761e-39
0.50910962 -0.060227767 0.69389671 8.9429761e-39
0.51053345 -0.061803415 0.69445354 8.9429761e-39
0.50778413 -0.058586407 0.69447219 8.9429761e-39
0.5057624 -0.056168683 0.69476092 1.0141519e-38
0.50278884 -0.05274418 0.69428301 1.1708845e-38
0.49965566 -0.049034446 0.69447577 1.1708842e-38
0.5010463 -0.050585352 0.69504672 1.1708842e-38
0.49694234 -0.045876797 0.69451761 1.1616644e-38
0.49826705 -0.047485895 0.69390571 1.1708842e-38
0.4961752 -0.043309074 0.69518763 1.1709204e-38
0.49702185 -0.041411839 0.69440502 1.1248947e-38
0.49820721 -0.040006615 0.69399071 9.4035871e-39
0.49975631 -0.037829749 0.69433343 1.069433e-38
0.50177181 -0.034896366 0.69529104 1.1432257e-38
0.50375533 -0.032815509 0.69377053 1.1708485e-38
0.50455379 -0.031289201 0.69518441 1.1708845e-38
0.50695044 -0.028427783 0.6943686 1.1708483e-38
0.50855494 -0.026225114 0.69466674 1.1616647e-38
0.51016062 -0.024019487 0.69496936 1.1616647e-38
0.51177919 -0.022563584 0.69525999 1.1708845e-38
0.51335907 -0.021145193 0.69434643 1.1708485e-38
0.51511931 -0.019692039 0.69445586 1.1708483e-38
0.51686531 -0.018233094 0.69459194 1.1708483e-38
0.51851439 -0.016762143 0.69486713 1.1708842e-38
0.51993996 -0.015309092 0.69419146 1.1616281e-38
0.52157891 -0.013828777 0.69449246 1.1708482e-38
0.52322173 -0.012344941 0.69479418 1.1708482e-38
0.52466154 -0.01087784 0.69411445 1.1616645e-38
0.52634215 -0.0093878154 0.69437766 1.1708844e-38
0.5277667 -0.0079093389 0.69373035 1.1708845e-38
0.52930045 -0.006894019 0.69504064 1.1524455e-38
0.53203148 -0.0044052419 0.69476599 4.9800746e-39
0.53566235 -0.00089895725 0.69416088 2.8599577e-39
0.53871185 0.0018814486 0.69434732 2.8599577e-39
0.54186112 0.004673067 0.69442445 2.8599577e-39
0.54371673 0.0056932382 0.69536144 2.9517932e-39
0.5451262 0.007221722 0.69479167 2.8599577e-39
0.54690158 0.0087595293 0.69500911 2.8599577e-39
0.54825735 0.010299132 0.69451886 2.8599577e-39
0.54960048 0.011074195 0.69530225 2.8599577e-39
0.55299222 0.014169831 0.69472897 2.8599577e-39
0.55590206 0.016505135 0.69478923 3.2283759e-39
0.55785036 0.018068731 0.69482958 4.7031276e-39
0.55980504 0.019637402 0.69487005 1.0233723e-38
0.56289983 0.022264048 0.69432521 1.0971279e-38
0.56541026 0.024375163 0.69411021 1.0970916e-38
0.56731695 0.025964556 0.69424158 1.0786886e-38
0.56911993 0.02755763 0.69450873 1.0694692e-38
0.57092768 0.029154867 0.69477648 1.05103e-38
0.56610405 0.032272331 0.69352198 8.8162076e-39
0.57252675 0.030761451 0.69405824 1.0878721e-38
0.57424742 0.031828944 0.69527858 1.0141518e-38
0.57739037 0.034522966 0.69476891 1.0325909e-38
0.57923907 0.035597518 0.69584823 9.6805411e-39
0.5809375 0.037228268 0.69503731 1.0141518e-38
0.58311564 0.038863465 0.69490117 1.0049324e-38
0.584916 0.040510204 0.69398081 1.05103e-38
0.58568877 0.040499687 0.69554758 9.5883455e-39
0.58749861 0.04215277 0.69462544 9.957128e-39
0.58970523 0.043807026 0.69448388 9.8649324e-39
0.59192163 0.045467734 0.69434023 9.8649324e-39
0.45859182 0.19357792 0.6939618 4.6025522e-39
0.46171647 0.19470993 0.69421828 6.7346236e-39
0.4635154 0.19357596 0.69403118 7.5629325e-39
0.45806396 0.19693628 0.69470525 6.1821757e-39
0.45988995 0.19582647 0.69445729 6.1821757e-39
0.4526273 0.20024058 0.69544339 6.1821757e-39
0.45443267 0.19914332 0.69519824 6.1821757e-39
0.45624489 0.19804189 0.69495219 6.1821757e-39
0.45072708 0.2020361 0.69412822 6.1821757e-39
0.44840813 0.20541954 0.6943444 6.1821757e-39
0.44610891 0.20879264 0.69454432 6.1821757e-39
0.44353437 0.21240215 0.69433868 6.1821757e-39
0.44458765 0.21101853 0.69524324 6.1821757e-39
0.44180617 0.21490127 0.69451833 5.9977858e-39
0.43987021 0.21767628 0.69417906 6.0899801e-39
0.4373965 0.22128062 0.69385713 6.0899815e-39
0.43843722 0.21990341 0.69476604 6.1821757e-39
0.43595657 0.22349024 0.69446641 6.1821757e-39
0.43388894 0.22639769 0.69502628 6.1821757e-39
0.43130437 0.22981651 0.69471574 6.1821757e-39
0.43254077 0.2280844 0.69398409 6.1821757e-39
0.42994082 0.23257196 0.69479316 6.1821757e-39
0.42959318 0.23489435 0.69449902 6.1821757e-39
0.42923269 0.23861079 0.69422728 6.1821757e-39
0.42981479 0.24217141 0.69456768 7.1019572e-39
0.43133199 0.24483129 0.693367 6.0867192e-39
0.43256626 0.24683064 0.695243 5.9023266e-39
0.43472612 0.24985099 0.69300592 5.9016035e-39
0.43614751 0.2509889 0.69588602 5.8094065e-39
0.52210671 -0.32578853 0.69713384 2.8599577e-39
0.52175838 -0.32198253 0.69676715 2.8599577e-39
0.52147943 -0.31951118 0.69714332 2.8599577e-39
0.52120066 -0.31704283 0.69751906 2.8599577e-39
0.52117461 -0.31398451 0.69755435 2.8599577e-39
0.52172399 -0.31130514 0.69681358 2.8599577e-39
0.52217925 -0.30974147 0.69745445 2.8599577e-39
0.52276951 -0.30750516 0.69791627 2.8599577e-39
0.52372456 -0.30383766 0.69746941 2.8599577e-39
0.52434427 -0.30147174 0.69747454 2.8599577e-39
0.52497047 -0.29910666 0.69747269 2.8599577e-39
0.5253073 -0.29779226 0.69702184 2.8599577e-39
0.52591097 -0.29555446 0.6974678 2.8599577e-39
0.52668393 -0.29265615 0.69769049 2.8599577e-39
0.52757907 -0.28922284 0.69712341 3.0443461e-39
0.5282321 -0.28685138 0.69813454 8.2980033e-39
0.52908248 -0.28353396 0.6970048 1.1708845e-38
0.52987671 -0.280478 0.69782948 1.1801041e-38
0.53049254 -0.27685502 0.69764066 1.1801041e-38
0.53084296 -0.27399087 0.69717693 1.1801041e-38
0.53136086 -0.27092111 0.69774336 1.1801041e-38
0.53170502 -0.26804709 0.69728863 1.1801041e-38
0.53220236 -0.26496333 0.6978848 1.1801041e-38
0.5325402 -0.26207966 0.69743919 1.1801041e-38
0.5330165 -0.25882205 0.69764537 1.1801041e-38
0.53338176 -0.25610828 0.69758135 1.1801041e-38
0.5337472 -0.2533929 0.69751769 1.1801041e-38
0.53422427 -0.25012916 0.69772536 1.1801041e-38
0.53456402 -0.24723029 0.69727898 1.1801041e-38
0.53508574 -0.24415225 0.69784439 1.1801041e-38
0.53538907 -0.24122882 0.69744641 1.1801041e-38
0.53571773 -0.2384838 0.69743276 1.1801041e-38
0.53615618 -0.23519084 0.69769311 1.1801041e-38
0.53651083 -0.23228364 0.69722873 1.1801041e-38
0.53686607 -0.2293725 0.69676369 1.1801041e-38
0.53718352 -0.22824995 0.69884914 1.1801041e-38
0.53733587 -0.22626187 0.69739974 1.1801041e-38
0.5378058 -0.22315159 0.69803745 1.1801041e-38
0.53816199 -0.22023286 0.69757283 1.1801041e-38
0.53851867 -0.21731015 0.69710749 1.1801041e-38
0.53898847 -0.21419702 0.69774473 1.1616651e-38
0.53934342 -0.21126738 0.69728267 1.1524455e-38
0.53980887 -0.2081508 0.69792813 1.1432262e-38
0.5401634 -0.20521492 0.69746733 1.0510675e-38
0.54042101 -0.20223357 0.69713259 9.312144e-39
0.54070812 -0.19885631 0.69759244 8.3905576e-39
0.54090989 -0.19603212 0.69774699 5.0722688e-39
0.54106504 -0.19300286 0.69754577 2.9521519e-39
0.54122025 -0.18997182 0.69734448 2.8599577e-39
0.54154241 -0.18688092 0.69703805 2.7717151e-39
0.54187822 -0.18383369 0.6977421 2.8599577e-39
0.54229271 -0.18089792 0.69720542 2.8599577e-39
0.54274029 -0.17931819 0.6978749 2.8599577e-39
0.54318798 -0.17773956 0.69854569 2.8599577e-39
0.54360366 -0.17479759 0.69800937 2.8599577e-39
0.54456306 -0.17282631 0.69677162 2.8599577e-39
0.54543853 -0.16887891 0.69814229 2.8599577e-39
0.54679024 -0.16703226 0.69640476 2.8599577e-39
0.54766691 -0.16307816 0.69777858 2.8599577e-39
0.54922438 -0.16031948 0.69703335 2.8599577e-39
0.55103356 -0.15823267 0.69722247 2.8599577e-39
0.55301195 -0.15697652 0.69720328 2.8599577e-39
0.52695286 -0.078101106 0.69733185 1.1524452e-38
0.524216 -0.076245777 0.69848245 1.1708844e-38
0.52072972 -0.073032089 0.69689858 9.7727368e-39
0.52232826 -0.07465969 0.69725472 1.1063474e-38
0.51811743 -0.069703832 0.69792247 8.9429761e-39
0.5194217 -0.071365342 0.69741172 9.0351717e-39
0.5149467 -0.066476867 0.69721252 8.9429761e-39
0.51653028 -0.068088569 0.69756705 8.9429761e-39
0.51207834 -0.063225321 0.69736856 8.9429761e-39
0.51375228 -0.064283736 0.69842625 1.0786889e-38
0.50927269 -0.06008406 0.69619781 8.9429761e-39
0.51101625 -0.061624542 0.69757026 1.0049324e-38
0.50874984 -0.05916103 0.69818032 9.6805411e-39
0.50590181 -0.056027971 0.69709218 1.0049324e-38
0.50338888 -0.053074498 0.69765425 1.1708845e-38
0.4997381 -0.0488974 0.69689041 1.1708844e-38
0.50110799 -0.050442524 0.69748747 1.1708845e-38
0.49717414 -0.045695126 0.69798577 1.1709925e-38
0.49838614 -0.047284044 0.69753349 1.1708482e-38
0.49731919 -0.043777049 0.69693881 1.1618091e-38
0.49864104 -0.043524496 0.69843632 1.1709927e-38
0.49933556 -0.040635925 0.69745731 1.0602856e-38
0.50029081 -0.037977997 0.69695348 8.7560443e-39
0.50163257 -0.037001468 0.69801211 1.2446407e-38
0.50263405 -0.034818046 0.69787014 1.2815193e-38
0.50316107 -0.032634433 0.69713265 1.2815193e-38
0.50428951 -0.03189766 0.69807714 1.2815193e-38
0.50575739 -0.02923532 0.69771212 1.1985432e-38
0.50845563 -0.025832122 0.69816715 1.3460562e-38
0.51156569 -0.02320515 0.69807309 1.2999582e-38
0.51388079 -0.021056596 0.69741297 1.1708842e-38
0.51563811 -0.019606303 0.69752651 1.1708844e-38
0.51740056 -0.018151782 0.69764048 1.1708844e-38
0.52009106 -0.015724009 0.69734335 1.1616286e-38
0.52199489 -0.013784781 0.69644839 1.1708842e-38
0.52345544 -0.012774233 0.69783121 1.1708844e-38
0.52656215 -0.010068444 0.69785321 1.244641e-38
0.52970392 -0.0073489905 0.69785076 1.2446413e-38
0.53147185 -0.006349355 0.69884825 1.3460935e-38
0.53307766 -0.0043693692 0.69756478 3.5053271e-39
0.53409743 -0.0033618044 0.69789207 2.8599577e-39
0.53605759 -0.0013684115 0.69698811 2.8599577e-39
0.53787386 -0.00035953522 0.69794858 2.9517932e-39
0.53932679 0.0011456143 0.69730508 2.9517932e-39
0.54124689 0.0026585124 0.69731051 2.9517932e-39
0.5427109 0.0041741915 0.69666386 2.9517932e-39
0.54457814 0.0051936037 0.69758576 2.8599577e-39
0.54727149 0.0077448715 0.69745344 2.8599577e-39
0.54902029 0.0087728025 0.69854242 2.8599577e-39
0.55084664 0.011081281 0.69746071 2.8599577e-39
0.55258751 0.011857803 0.6989882 2.8599577e-39
0.5535624 0.013918842 0.69692165 2.8599577e-39
0.55532533 0.014956648 0.69801664 2.8599577e-39
0.55675364 0.016512766 0.69746161 4.7960589e-39
0.55853921 0.016510924 0.69895375 8.6667872e-39
0.55921656 0.018596159 0.69727474 8.9429915e-39
0.56106991 0.019641213 0.69827652 1.0879084e-38
0.56258887 0.02121231 0.69762653 1.0233715e-38
0.56453317 0.022788897 0.69769847 1.0233355e-38
0.56648362 0.024370495 0.6977706 1.0141518e-38
0.56841838 0.025956973 0.69787002 9.8649324e-39
0.56984359 0.027548626 0.69735938 9.3117586e-39
0.57171601 0.028611256 0.69837779 9.5883455e-39
0.57479364 0.031282727 0.69793272 9.1273674e-39
0.57793248 0.033970028 0.69743246 9.219563e-39
0.57997179 0.035588916 0.69745082 9.219563e-39
0.58307791 0.037757069 0.69785184 9.1273674e-39
0.58504683 0.038839661 0.69880211 9.0351717e-39
0.58685064 0.040484082 0.69788885 9.1273674e-39
0.58965725 0.042682957 0.69744617 9.1273674e-39
0.59164685 0.043776393 0.6983977 8.9429761e-39
0.46146828 0.19423416 0.69716203 7.837353e-39
0.46349573 0.19444701 0.6979022 9.3131992e-39
0.46557575 0.19467877 0.69857121 9.2206434e-39
0.45697251 0.19702879 0.6976757 6.0867234e-39
0.45966464 0.1953553 0.69736809 7.100511e-39
0.45283228 0.1999273 0.69769228 6.1818156e-39
0.45436001 0.19872083 0.69787854 6.0896185e-39
0.44993484 0.20381795 0.69709116 6.1821757e-39
0.4513334 0.20185475 0.69746667 6.0899787e-39
0.44877663 0.20550323 0.69719839 6.1818156e-39
0.44611692 0.20941986 0.69796884 6.0899801e-39
0.44733232 0.20760481 0.69733238 6.0899801e-39
0.44357032 0.21269821 0.69686484 6.1821757e-39
0.44467476 0.21133971 0.69768316 6.0899801e-39
0.44232902 0.21464664 0.69798571 6.0899787e-39
0.44015709 0.21768673 0.69716758 6.0899801e-39
0.44117719 0.21630123 0.69811022 6.1818156e-39
0.43767565 0.22143783 0.69729066 6.0899801e-39
0.43881479 0.21963015 0.69674522 6.1821757e-39
0.43626904 0.22349669 0.69741374 6.0899801e-39
0.4338834 0.22670905 0.6978426 6.0899787e-39
0.43506926 0.22510265 0.6976375 6.1818156e-39
0.43136105 0.23006886 0.69721884 6.1818156e-39
0.43221325 0.22885333 0.697119 6.1821757e-39
0.43061376 0.23226295 0.69779789 6.0899787e-39
0.42955175 0.23578219 0.69716746 6.0896171e-39
0.42917219 0.2387803 0.69692898 6.3658425e-39
0.4300451 0.24147008 0.69722027 6.1818142e-39
0.43133292 0.24444728 0.69769686 5.9970586e-39
0.43379945 0.24882825 0.69711733 5.810131e-39
0.43596822 0.25037056 0.69876158 5.5313763e-39
0.43836439 0.25255919 0.6974712 5.9016021e-39
0.52182192 -0.32515386 0.70085406 2.8599577e-39
0.52173215 -0.32242912 0.70055854 2.8599577e-39
0.52170157 -0.31937373 0.70059979 2.8599577e-39
0.52168328 -0.31669495 0.70020813 2.8599577e-39
0.52201676 -0.3154462 0.70142573 2.8599577e-39
0.52159786 -0.31357855 0.69949007 2.8599577e-39
0.52206558 -0.31320351 0.70136034 2.8599577e-39
0.5218181 -0.31144571 0.69919437 2.8599577e-39
0.52225661 -0.31029496 0.70110476 2.8599577e-39
0.52287209 -0.30765975 0.70028102 2.8599577e-39
0.52363622 -0.30477995 0.70050669 2.8599577e-39
0.52440131 -0.30189699 0.70073426 2.8599577e-39
0.52487731 -0.29991674 0.70009959 2.8599577e-39
0.5253883 -0.29799071 0.70024973 2.8599577e-39
0.52609277 -0.29546049 0.70097679 2.8599577e-39
0.52702981 -0.29176328 0.70056319 2.8599577e-39
0.52765387 -0.28939137 0.70056695 3.0439874e-39
0.52843076 -0.2863448 0.70036983 9.5887281e-39
0.5292151 -0.28344899 0.70057839 1.1801041e-38
0.52997625 -0.28053561 0.7008208 1.1801041e-38
0.53061593 -0.27785176 0.69997716 1.1801041e-38
0.53104758 -0.27673322 0.70189959 1.1801041e-38
0.53092372 -0.27573478 0.69957119 1.1801041e-38
0.53126818 -0.27451244 0.70077896 1.1801041e-38
0.53155172 -0.27212477 0.70040625 1.1801041e-38
0.53202689 -0.26887983 0.70061266 1.1801041e-38
0.53236377 -0.26600546 0.70017004 1.1801041e-38
0.53289217 -0.2629452 0.7007215 1.1801041e-38
0.53322983 -0.26006502 0.70027864 1.1801041e-38
0.53375882 -0.25700244 0.70083177 1.1801041e-38
0.53409719 -0.25411651 0.70038867 1.1801041e-38
0.53461599 -0.25041652 0.70033199 1.1801041e-38
0.53505045 -0.2474362 0.70038635 1.1801041e-38
0.53545642 -0.24507354 0.70110202 1.1801041e-38
0.5357399 -0.24214752 0.70073229 1.1801041e-38
0.53609455 -0.23848532 0.70026964 1.1801041e-38
0.5365358 -0.23494495 0.70052356 1.1801041e-38
0.53683352 -0.2324428 0.70055056 1.1801041e-38
0.53713912 -0.22994398 0.7005679 1.1801041e-38
0.53750402 -0.22713211 0.70092368 1.1801041e-38
0.53794414 -0.22349387 0.70035166 1.1801041e-38
0.53838885 -0.2198517 0.69977373 1.1708845e-38
0.53876901 -0.21747427 0.70052403 1.1616649e-38
0.53914714 -0.21509835 0.70127869 9.8653121e-39
0.53950012 -0.21217677 0.70082152 5.6250769e-39
0.53985357 -0.20925122 0.70036381 8.298362e-39
0.54011893 -0.2070546 0.70002019 8.5745873e-39
0.54042864 -0.20498018 0.70044822 4.887879e-39
0.54075813 -0.20247503 0.70043671 3.1361816e-39
0.5410561 -0.19995593 0.70046669 3.4127657e-39
0.54136765 -0.19711073 0.70089424 2.8599577e-39
0.54152262 -0.19408825 0.70069432 2.8599577e-39
0.54167765 -0.191064 0.70049429 2.8599577e-39
0.54183275 -0.18803793 0.70029414 2.8599577e-39
0.5423913 -0.1849618 0.70081705 2.8599577e-39
0.54269093 -0.18231402 0.7000165 2.8599577e-39
0.54314852 -0.18118942 0.70108604 2.8599577e-39
0.54345959 -0.17898983 0.70068622 2.8599577e-39
0.54406887 -0.17573668 0.70073158 2.8599577e-39
0.5445298 -0.1730057 0.70055407 2.8599577e-39
0.54499131 -0.17027211 0.70037669 2.8599577e-39
0.54560256 -0.16700915 0.70042259 2.8599577e-39
0.54644221 -0.16421685 0.70100409 2.8599577e-39
0.5480004 -0.16089298 0.70067281 2.8599577e-39
0.55049849 -0.15925202 0.7003932 2.8599577e-39
0.55345923 -0.15737385 0.70037264 2.8599577e-39
0.53202802 -0.081339151 0.70061123 1.982206e-38
0.53549689 -0.081718341 0.6998055 1.982206e-38
0.52901894 -0.079625919 0.6995914 1.1616288e-38
0.52478629 -0.076155677 0.700221 1.180068e-38
0.52642471 -0.077220149 0.70136696 1.4197767e-38
0.52158821 -0.072901629 0.69950312 9.8649324e-39
0.52333772 -0.073698334 0.70090652 1.3737149e-38
0.52046162 -0.070304565 0.70051706 1.1247867e-38
0.52205801 -0.071279228 0.7013706 1.1893236e-38
0.51771903 -0.06708011 0.70021665 1.1801041e-38
0.52006918 -0.068075441 0.70154363 1.1801041e-38
0.51509672 -0.063775845 0.69993609 1.1893236e-38
0.51718706 -0.064343505 0.70126867 1.1893236e-38
0.51252359 -0.061618932 0.69926983 1.1247867e-38
0.51428497 -0.061655939 0.70062304 1.1247867e-38
0.51604784 -0.061692968 0.70197725 1.1247867e-38
0.50918722 -0.058313783 0.70008695 1.0325911e-38
0.51125324 -0.059527412 0.70100796 1.0510302e-38
0.50610977 -0.055622388 0.69973785 1.1432258e-38
0.50794929 -0.056143478 0.70137388 1.0694693e-38
0.50312489 -0.051856223 0.70095479 1.3552758e-38
0.50487018 -0.05346046 0.70103705 1.3552758e-38
0.49994442 -0.048705038 0.70037717 1.26308e-38
0.50149584 -0.050273277 0.70071739 1.2630801e-38
0.49910489 -0.046247706 0.70080167 1.244713e-38
0.50004756 -0.043508798 0.70023334 1.143298e-38
0.50162256 -0.040603183 0.70054048 8.4805448e-39
0.5028975 -0.037840329 0.70051861 1.0693606e-38
0.50340927 -0.035537142 0.69930398 1.2815193e-38
0.50465029 -0.034527127 0.7009244 1.1708845e-38
0.57447815 -0.033668928 0.70190442 4.8894064e-39
0.50553679 -0.031866491 0.70011288 1.1801041e-38
0.50707471 -0.031119511 0.70174444 1.4013734e-38
0.50673378 -0.028945029 0.69971019 1.3091779e-38
0.508448 -0.028963786 0.70110428 1.4013732e-38
0.5092414 -0.026794093 0.70001274 1.4474352e-38
0.51142865 -0.025730446 0.70076835 1.3552396e-38
0.51216441 -0.023919582 0.69976127 1.4290321e-38
0.5145151 -0.022485072 0.70030999 1.3736787e-38
0.51707768 -0.021539256 0.70141673 1.2722997e-38
0.51763141 -0.019222034 0.6998347 1.3921536e-38
0.52035451 -0.018518645 0.70116079 1.2907025e-38
0.52088976 -0.016186578 0.69960874 1.4289954e-38
0.52324784 -0.015968211 0.7010268 1.2722994e-38
0.52539933 -0.015252981 0.70189816 1.1893236e-38
0.52413809 -0.013753058 0.69983745 1.410593e-38
0.52660179 -0.012887645 0.70079982 1.2907388e-38
0.52718335 -0.010805666 0.69952798 1.4474714e-38
0.52934939 -0.01008009 0.7004022 1.3276171e-38
0.53148556 -0.0093515739 0.70132411 6.086062e-39
0.53087103 -0.0078469887 0.69964063 1.4013737e-38
0.53296793 -0.0071111224 0.70062304 4.0585079e-39
0.53498775 -0.006370211 0.70171332 3.4135084e-39
0.53561699 -0.0042651701 0.70039451 3.4135084e-39
0.53736174 -0.0033676866 0.70110863 3.4135084e-39
0.53688627 -0.0018564221 0.69923699 2.9517932e-39
0.53891253 -0.0011062911 0.70033908 3.2291129e-39
0.54089868 -0.00035407208 0.70149928 3.4135084e-39
0.54191256 0.0015341472 0.70019114 3.043993e-39
0.54401505 0.0026729777 0.70121503 2.8599577e-39
0.54497248 0.0041869581 0.69998652 2.8599577e-39
0.54711223 0.0053317328 0.70097744 3.3213114e-39
0.54808968 0.0072424244 0.69972992 2.8599577e-39
0.55016845 0.0080068167 0.70081276 3.5979067e-39
0.55257535 0.0087636216 0.7014876 3.874502e-39
0.55178118 0.010315021 0.70000958 3.874502e-39
0.553886 0.010820352 0.70066124 3.874502e-39
0.55596912 0.01184424 0.70093566 3.874502e-39
0.55446041 0.013405244 0.69910836 3.874502e-39
0.55691922 0.014174609 0.69974291 4.4276659e-39
0.55941457 0.014427927 0.70116997 7.9299508e-39
0.55977106 0.016509283 0.69989794 1.1063476e-38
0.56162035 0.016506819 0.7013154 1.1063476e-38
0.56034857 0.018073896 0.69917703 1.078689e-38
0.562558 0.01885616 0.70015121 1.097128e-38
0.56476504 0.019639153 0.70113611 1.0879084e-38
0.56567669 0.021606248 0.70001078 1.0879084e-38
0.56806856 0.022789337 0.70078301 1.0602497e-38
0.61695445 0.021178409 0.70132369 1.5027888e-38
0.56877315 0.024371073 0.69991755 1.0602497e-38
0.57099587 0.025560867 0.70091176 1.0325911e-38
0.57241482 0.02754733 0.70041823 1.0325911e-38
0.57423854 0.02914178 0.70067501 1.0325911e-38
0.61003506 0.027716741 0.70177388 1.5120083e-38
0.57549524 0.030740008 0.7003876 1.0325911e-38
0.57727677 0.031944636 0.7007063 9.5883455e-39
0.57866442 0.033962473 0.69903028 9.0351717e-39
0.58046883 0.034764759 0.70057195 9.3117586e-39
0.58239549 0.035568699 0.70197046 1.714766e-38
0.58408403 0.037195578 0.70118904 1.2906658e-38
0.58624715 0.038826719 0.70108438 1.2999219e-38
0.58841836 0.040464006 0.70097935 1.3091777e-38
0.59060013 0.04210756 0.70087111 8.9429761e-39
0.59242195 0.043764163 0.69996005 8.9429761e-39
0.45749348 0.19665568 0.70070171 4.6987247e-39
0.46048978 0.19510424 0.69993353 8.4856147e-39
0.46324676 0.1954132 0.70082575 8.5767257e-39
0.46601364 0.19572327 0.70172113 8.3008661e-39
0.47006828 0.19671412 0.69944358 8.4812749e-39
0.4524073 0.20078455 0.70091021 5.5339112e-39
0.45434186 0.1990355 0.70046234 5.3480738e-39
0.45103317 0.20275441 0.70049512 5.4413526e-39
0.44911218 0.20557255 0.70008975 5.7186668e-39
0.45010191 0.20449862 0.70194721 4.6061703e-39
0.4466795 0.20934075 0.70049876 5.3484353e-39
0.44798017 0.20759439 0.70101213 5.1633196e-39
0.44513711 0.21144958 0.70037287 5.6264684e-39
0.44311392 0.21443015 0.70080256 5.440631e-39
0.44034329 0.21812344 0.70029956 5.5331895e-39
0.44136876 0.21665505 0.70037413 5.7190283e-39
0.43885803 0.22038667 0.70053816 5.3484353e-39
0.43674743 0.2235062 0.70050645 5.2558782e-39
0.43425623 0.22673602 0.70067519 5.3484353e-39
0.43172508 0.2309341 0.70049977 5.5339098e-39
0.4325811 0.22902575 0.70039225 5.441354e-39
0.43089861 0.23285277 0.7005595 5.1625979e-39
0.42976895 0.23570502 0.70025998 4.9774822e-39
0.4295294 0.23822102 0.70022255 4.8834803e-39
0.4304491 0.24124563 0.70000648 5.6232118e-39
0.43162817 0.2441597 0.70065784 4.4206931e-39
0.43320787 0.24729204 0.70066059 4.7912805e-39
0.43637264 0.25007096 0.70068222 4.7909189e-39
0.43905365 0.2518906 0.70150793 4.6050815e-39
0.43850023 0.25211066 0.69982868 5.3462591e-39
0.52341682 -0.32712066 0.70453203 2.3060468e-39
0.52201986 -0.3253563 0.70390981 2.8599577e-39
0.52220982 -0.32245809 0.70365649 2.8599577e-39
0.52240211 -0.31880215 0.70340014 2.8599577e-39
0.5224672 -0.3158161 0.70331335 2.8599577e-39
0.52253228 -0.31282932 0.70322657 2.8599577e-39
0.52262223 -0.30985796 0.70310652 2.8599577e-39
0.5232302 -0.30727389 0.70378655 2.8599577e-39
0.52403069 -0.304037 0.7037164 2.8599577e-39
0.52466345 -0.30140558 0.70287579 2.8599577e-39
0.52508289 -0.3002578 0.7048015 2.8599577e-39
0.52541852 -0.29866332 0.70352954 2.8599577e-39
0.5261935 -0.2956399 0.70333129 2.8599577e-39
0.5269596 -0.29275304 0.70355856 2.8599577e-39
0.52772665 -0.28986302 0.70378768 2.9517932e-39
0.52860063 -0.28642893 0.70325524 8.6667816e-39
0.52945769 -0.28342894 0.70398879 1.1708845e-38
0.53025138 -0.28008631 0.70294583 1.1801041e-38
0.53072935 -0.27853596 0.70355779 1.1801041e-38
0.53117836 -0.27696955 0.70421004 1.1801041e-38
0.53166938 -0.27420035 0.70356721 1.1801041e-38
0.53219151 -0.27099195 0.70370984 1.1801041e-38
0.53257215 -0.26830786 0.7036252 1.1801041e-38
0.53292084 -0.2654455 0.70316958 1.1801041e-38
0.53344989 -0.26239175 0.70371938 1.1801041e-38
0.5338012 -0.25952438 0.7032612 1.1801041e-38
0.53431845 -0.25646222 0.70382565 1.1801041e-38
0.53466535 -0.2535862 0.70337391 1.1801041e-38
0.53504139 -0.25088558 0.70329779 1.1801041e-38
0.53550345 -0.24762575 0.70352376 1.1801041e-38
0.53578639 -0.24470671 0.70315605 1.1801041e-38
0.53623182 -0.24160241 0.70381582 1.1801041e-38
0.5365169 -0.23867972 0.70344597 1.1801041e-38
0.53673023 -0.23648541 0.70316923 1.1801041e-38
0.53703636 -0.23484458 0.70401192 1.1801041e-38
0.53724933 -0.23264822 0.70373613 1.1801041e-38
0.53753358 -0.22971711 0.70336807 1.1801041e-38
0.53794795 -0.22642319 0.70365667 1.1801041e-38
0.53826338 -0.22367488 0.7036615 1.1801041e-38
0.53857458 -0.22074822 0.70325923 1.1801041e-38
0.53901708 -0.21763818 0.70392686 1.0971288e-38
0.53936911 -0.21472478 0.70347273 5.4406884e-39
0.53972161 -0.21180755 0.70301789 2.9517932e-39
0.53998637 -0.20961714 0.70267636 3.3209302e-39
0.54025108 -0.20840029 0.70398551 3.1365418e-39
0.5405454 -0.20596562 0.7036069 3.1365404e-39
0.5410018 -0.20267724 0.70384562 2.8599577e-39
0.54135585 -0.19974864 0.70339048 2.8599577e-39
0.5416919 -0.1968084 0.70295858 2.8599577e-39
0.54205543 -0.19366066 0.7037288 2.8599577e-39
0.54221034 -0.19064228 0.70353001 2.8599577e-39
0.54246557 -0.18766184 0.70320261 2.8599577e-39
0.5431093 -0.18462473 0.70361584 2.8599577e-39
0.54371685 -0.181383 0.70366257 2.8599577e-39
0.54417634 -0.17866229 0.70348704 2.8599577e-39
0.54463643 -0.17593901 0.70331168 2.8599577e-39
0.54524583 -0.17268746 0.70335895 2.8599577e-39
0.54603285 -0.17181788 0.70482802 2.8599577e-39
0.54566222 -0.16974765 0.70282757 2.8599577e-39
0.54635406 -0.16961703 0.70441955 2.8599577e-39
0.54597497 -0.16753991 0.70242852 2.8599577e-39
0.54658359 -0.16647471 0.70330304 2.8599577e-39
0.54748315 -0.16344939 0.70380831 2.8599577e-39
0.54790872 -0.16147202 0.7036798 2.8599577e-39
0.55047494 -0.15986019 0.70331526 2.8599577e-39
0.55336237 -0.15816684 0.70379621 2.8599577e-39
0.55588114 -0.15651685 0.70352006 2.8599577e-39
0.55822372 -0.15520185 0.70430058 2.8599577e-39
0.52967656 -0.079447508 0.70246041 1.7056192e-38
0.53290457 -0.079129577 0.70360535 1.8070343e-38
0.53555745 -0.079308271 0.70427996 1.7885952e-38
0.53840297 -0.080033801 0.70471919 1.7517168e-38
0.52682394 -0.076148584 0.70249689 1.539667e-38
0.52908421 -0.077045329 0.70324033 1.7424974e-38
0.53168231 -0.07692416 0.70437652 1.6871799e-38
0.52481949 -0.072925135 0.70266843 1.5304475e-38
0.52650064 -0.073918924 0.70342177 1.6687409e-38
0.53001982 -0.073978588 0.70449018 1.6410461e-38
0.52361512 -0.070522286 0.70302719 1.2630801e-38
0.52537787 -0.070560738 0.70441115 1.4382518e-38
0.54700345 -0.071604908 0.70359391 1.816181e-38
0.54935306 -0.070281357 0.70308554 1.4011558e-38
0.52057904 -0.067035131 0.70252103 1.1801041e-38
0.52279556 -0.067344591 0.70411789 1.1801041e-38
0.54844218 -0.06857574 0.70423943 1.7239134e-38
0.55122304 -0.06809216 0.70319444 1.5671445e-38
0.51835388 -0.063330494 0.70260406 1.2077628e-38
0.52056944 -0.064316273 0.70386016 1.1985432e-38
0.54985058 -0.065536909 0.70492679 1.9452555e-38
0.55255961 -0.065030649 0.70398164 1.6409373e-38
0.556216 -0.063803032 0.70310235 1.5579252e-38
0.51721227 -0.061156999 0.70372659 1.1247867e-38
0.51957822 -0.061767131 0.7046895 1.1247867e-38
0.55384821 -0.06273476 0.70483148 1.7885228e-38
0.55955851 -0.060867909 0.7038759 1.5856202e-38
0.56257045 -0.061163615 0.70261216 1.6134253e-38
0.51203746 -0.058278315 0.70368105 1.0325911e-38
0.51425326 -0.059974711 0.70316184 1.1247867e-38
0.56304765 -0.05793865 0.7044909 1.1801457e-38
0.5653398 -0.058981702 0.70290053 1.0050862e-38
0.50894392 -0.055586558 0.70333767 1.0325911e-38
0.51074833 -0.056654394 0.70419228 1.0325911e-38
0.56590772 -0.055765644 0.70466882 5.442576e-39
0.56806642 -0.054344788 0.70448959 6.0875768e-39
0.50581831 -0.052252389 0.70347655 1.4474352e-38
0.50781661 -0.053443715 0.70446718 1.2998862e-38
0.57061642 -0.052969962 0.70384395 4.9816034e-39
0.50258398 -0.049092263 0.70295846 1.5581061e-38
0.50523764 -0.049928226 0.70427722 1.5026803e-38
0.57415897 -0.048410162 0.70447332 5.1660003e-39
0.50085032 -0.046385679 0.70287037 1.6134234e-38
0.50272983 -0.046436105 0.70400405 1.5119359e-38
0.50474489 -0.047249638 0.70495576 1.3089606e-38
0.57755387 -0.046251461 0.70407593 4.9816034e-39
0.50096577 -0.044171251 0.70270944 1.0787609e-38
0.50202793 -0.043434013 0.70372945 1.1708479e-38
0.50300652 -0.040520128 0.70361984 8.2968808e-39
0.55589211 -0.040024012 0.70363742 1.2631565e-38
0.58433306 -0.039432589 0.70458961 4.889405e-39
0.50396806 -0.038343612 0.70353645 9.957128e-39
0.50472033 -0.036883071 0.70374346 9.957128e-39
0.50575042 -0.035080176 0.70356953 1.1801041e-38
0.50776833 -0.034017082 0.70453328 1.1340062e-38
0.52039182 -0.033122696 0.70484293 1.9268885e-38
0.52372372 -0.033784226 0.7049517 1.5765453e-38
0.55009937 -0.03484004 0.70206738 1.6318625e-38
0.50654954 -0.032557547 0.7024684 1.3368366e-38
0.50855815 -0.031862196 0.70345062 1.1892873e-38
0.51161361 -0.031704724 0.70467287 1.6687045e-38
0.51491928 -0.032109316 0.70474851 1.9360352e-38
0.51785046 -0.031505872 0.70452404 1.9360352e-38
0.5206821 -0.030887637 0.70445502 1.9268521e-38
0.52384287 -0.03076756 0.70479345 1.8162539e-38
0.50993353 -0.029708743 0.70281374 1.1985062e-38
0.51170641 -0.028865218 0.70338506 1.3183974e-38
0.51452285 -0.029115131 0.70404088 1.9545471e-38
0.51735663 -0.02849309 0.70394689 1.9267794e-38
0.52094781 -0.027891688 0.70410013 1.9176684e-38
0.52357793 -0.027998326 0.70431793 1.926852e-38
0.52575856 -0.027823979 0.70473427 1.8070339e-38
0.59448701 -0.028675411 0.70493376 1.4842806e-38
0.59731984 -0.027213406 0.70409554 1.7977429e-38
0.51216531 -0.026829988 0.70226073 1.1892872e-38
0.51431447 -0.026137553 0.7030791 1.3368366e-38
0.51765031 -0.025506388 0.70355177 1.9360719e-38
0.52033156 -0.024858618 0.70368123 1.926852e-38
0.52296114 -0.024958802 0.70389819 1.9083764e-38
0.52634108 -0.025079839 0.70437747 1.8069972e-38
0.52880251 -0.0244027 0.70484966 1.8254372e-38
0.59896874 -0.024029575 0.7046411 1.7423889e-38
0.60016966 -0.025742628 0.70325232 1.9452915e-38
0.6030367 -0.024263002 0.70240396 2.019048e-38
0.51568413 -0.023960058 0.70246947 1.1893236e-38
0.51772702 -0.023015266 0.70303339 1.6779605e-38
0.52016419 -0.021598848 0.7030769 1.6779603e-38
0.52322209 -0.021951769 0.70355082 1.9268882e-38
0.52667224 -0.022070959 0.70393991 1.8623147e-38
0.52962488 -0.02190738 0.70459586 1.834693e-38
0.60182625 -0.022547852 0.70379871 1.8622794e-38
0.60453236 -0.021044895 0.70314479 1.9360361e-38
0.52113318 -0.019634161 0.70260835 1.1524454e-38
0.52355641 -0.018947415 0.70310581 1.7332777e-38
0.52697891 -0.019056166 0.70353484 1.8715707e-38
0.52991802 -0.019393304 0.70421094 1.8346929e-38
0.53209907 -0.018948467 0.70465738 1.834693e-38
0.60309213 -0.019319374 0.70479834 1.696327e-38
0.60712928 -0.019525029 0.70262921 1.9821699e-38
0.52479452 -0.016727567 0.70270169 1.1340062e-38
0.52647913 -0.016016241 0.70295334 1.5304473e-38
0.52896494 -0.016085327 0.70339727 1.8531322e-38
0.53215837 -0.016167719 0.70416749 1.834693e-38
0.534554 -0.016229155 0.70475769 1.834693e-38
0.60567909 -0.017798889 0.70428813 1.7700836e-38
0.60827899 -0.016270731 0.70377541 1.8346567e-38
0.61054915 -0.017197127 0.70242089 2.0375233e-38
0.52946705 -0.013072536 0.70273602 1.4843495e-38
0.53254008 -0.013140175 0.70366859 1.8162539e-38
0.53572989 -0.013215045 0.70446843 1.7794119e-38
0.53823078 -0.012511373 0.70494133 9.958654e-39
0.6072607 -0.012953553 0.70493603 2.019084e-38
0.61021018 -0.013878206 0.70403451 1.9637666e-38
0.61339349 -0.014002636 0.70288348 1.9913892e-38
0.61600804 -0.013271809 0.70239067 2.0467428e-38
0.53088003 -0.010842368 0.70211983 7.2845856e-39
0.53284019 -0.010368787 0.70286268 1.3276566e-38
0.53548038 -0.010170023 0.70355469 1.4014498e-38
0.53819054 -0.0099737905 0.70416951 4.4280541e-39
0.54026663 -0.010271229 0.70479059 4.2436572e-39
0.6072824 -0.011329029 0.70491135 2.037487e-38
0.6104303 -0.010335525 0.70460391 2.0006086e-38
