# .PCD v0.7 - Point Cloud Data file format
VERSION 0.7
FIELDS x y z rgb
SIZE 4 4 4 4
TYPE F F F F
COUNT 1 1 1 1
WIDTH 1009
HEIGHT 1
VIEWPOINT 0 0 0 1 0 0 0
POINTS 1009
DATA ascii
0.35585088 -0.46050775 0.60999954 1.1155671e-38
0.35869163 -0.46039051 0.60999954 1.1155671e-38
0.36154771 -0.46027261 0.6099996 1.1155671e-38
0.36456311 -0.46050349 0.60999954 1.1155671e-38
0.36730617 -0.46074745 0.6099996 1.1155671e-38
0.3702088 -0.46062958 0.6099996 1.1155671e-38
0.37312734 -0.46051112 0.6099996 1.1155671e-38
0.37606174 -0.46039194 0.60999954 1.1155671e-38
0.37901223 -0.46027213 0.60999954 1.1155671e-38
0.38183007 -0.4605183 0.60999954 1.1155671e-38
0.38496181 -0.46075383 0.60999954 1.1155671e-38
0.38796124 -0.46063405 0.60999954 1.1155671e-38
0.39097726 -0.46051353 0.60999954 1.1155671e-38
0.39401001 -0.46039245 0.60999954 1.1155671e-38
0.39705965 -0.46027067 0.60999954 1.1155671e-38
0.40028006 -0.46050924 0.60999954 1.1155671e-38
0.40321007 -0.46076143 0.60999954 1.1155671e-38
0.40631115 -0.46063966 0.60999954 1.1155671e-38
0.40942973 -0.46051717 0.60999948 1.1155671e-38
0.41256583 -0.46039402 0.60999954 1.1155671e-38
0.41571969 -0.46027017 0.60999954 1.1155671e-38
0.41889155 -0.46014559 0.60999954 1.1155671e-38
0.42208135 -0.46076825 0.60999954 1.1155671e-38
0.42448509 -0.46105078 0.60999948 1.1155671e-38
0.42690024 -0.46058273 0.60999954 1.1155671e-38
0.43013588 -0.46045786 0.60999942 1.1155671e-38
0.43339014 -0.46033221 0.60999942 1.1155671e-38
0.43666309 -0.46020585 0.60999948 1.1155671e-38
0.4402301 -0.46044815 0.60999942 1.1155671e-38
0.44243586 -0.46112576 0.60999942 1.1155671e-38
0.44492865 -0.46065044 0.60999948 1.1155671e-38
0.44826856 -0.46052366 0.60999942 1.1155671e-38
0.451628 -0.46039623 0.60999942 1.1155671e-38
0.45500714 -0.46026802 0.60999942 1.1155671e-38
0.28698298 -0.45742339 0.60999966 1.1063476e-38
0.28934112 -0.45764184 0.60999966 1.1063476e-38
0.29258716 -0.45748949 0.60999966 1.1063476e-38
0.2957269 -0.45767453 0.60999966 1.1063476e-38
0.29825363 -0.45755678 0.60999966 1.1063476e-38
0.30143073 -0.45729721 0.60999966 1.1063476e-38
0.30475506 -0.45758885 0.60999966 1.1063476e-38
0.30732775 -0.45746985 0.60999966 1.1063476e-38
0.31043312 -0.45755091 0.60999966 1.1063476e-38
0.31368679 -0.4575136 0.60999966 1.1063476e-38
0.31630546 -0.45739335 0.60999966 1.1063476e-38
0.31959823 -0.45758241 0.60999966 1.1063476e-38
0.32277837 -0.45743743 0.60999966 1.1063476e-38
0.3255778 -0.45765167 0.60999966 1.1063476e-38
0.32825813 -0.45753035 0.60999966 1.1063476e-38
0.33162898 -0.45749271 0.60999966 1.1063476e-38
0.33488441 -0.45757589 0.60999966 1.1063476e-38
0.33761352 -0.45745325 0.6099996 1.1063476e-38
0.34049463 -0.45767063 0.6099996 1.1063476e-38
0.34325349 -0.45754758 0.60999966 1.1155671e-38
0.3460269 -0.4574239 0.6099996 1.1155671e-38
0.34951523 -0.45738527 0.6099996 1.1155671e-38
0.35288441 -0.45746952 0.60999954 1.1155671e-38
0.35585088 -0.45769018 0.60999954 1.1155671e-38
0.3586916 -0.45756537 0.60999954 1.1155671e-38
0.36154771 -0.45743987 0.6099996 1.1155671e-38
0.36441913 -0.45731372 0.60999954 1.1155671e-38
0.36745089 -0.45753685 0.60999954 1.1155671e-38
0.3702088 -0.4577738 0.6099996 1.1155671e-38
0.37312734 -0.45764753 0.60999954 1.1155671e-38
0.37606174 -0.45752054 0.60999954 1.1155671e-38
0.3790122 -0.4573929 0.6099996 1.1155671e-38
0.38197881 -0.45726454 0.60999954 1.1155671e-38
0.38481227 -0.4575035 0.60999954 1.1155671e-38
0.38796121 -0.45773095 0.6099996 1.1155671e-38
0.39097726 -0.4576025 0.60999954 1.1155671e-38
0.39401001 -0.45747328 0.60999954 1.1155671e-38
0.39705962 -0.45734334 0.60999954 1.1155671e-38
0.40012625 -0.45721272 0.60999954 1.1155671e-38
0.4032101 -0.45781776 0.60999954 1.1155671e-38
0.40631115 -0.45768774 0.60999954 1.1155671e-38
0.4094297 -0.45755696 0.60999954 1.1155671e-38
0.41256583 -0.45742542 0.60999954 1.1155671e-38
0.41571969 -0.45729318 0.60999954 1.1155671e-38
0.41889155 -0.45716017 0.60999954 1.1155671e-38
0.42208135 -0.45777434 0.60999954 1.1155671e-38
0.42448503 -0.45805043 0.60999948 1.1155671e-38
0.42690024 -0.45757601 0.60999954 1.1155671e-38
0.43013585 -0.45744249 0.60999942 1.1155671e-38
0.43339011 -0.45730814 0.60999948 1.1155671e-38
0.43666309 -0.45717311 0.60999948 1.1155671e-38
0.439955 -0.45779708 0.60999942 1.1155671e-38
0.44243586 -0.45807764 0.60999942 1.1155671e-38
0.44492865 -0.45759568 0.60999948 1.1155671e-38
0.44826856 -0.45746008 0.60999942 1.1155671e-38
0.451628 -0.45732367 0.60999942 1.1155671e-38
0.45500708 -0.45718646 0.60999942 1.1155671e-38
0.45925826 -0.45662695 0.60999942 1.097128e-38
0.46354198 -0.45683989 0.60999948 1.097128e-38
0.46699134 -0.45669979 0.60999948 1.097128e-38
0.46959108 -0.45620388 0.60999954 1.097128e-38
0.47220373 -0.45648754 0.60999954 1.097128e-38
0.47482675 -0.4567731 0.60999954 1.097128e-38
0.47834325 -0.45663148 0.6099996 1.097128e-38
0.48188084 -0.45648903 0.60999954 1.097128e-38
0.48543972 -0.45634568 0.60999954 1.097128e-38
0.48722714 -0.45706546 0.60999972 1.097128e-38
0.48991913 -0.45656234 0.60999966 1.097128e-38
0.49352649 -0.45641825 0.60999966 1.097128e-38
0.49806583 -0.45663619 0.60999972 1.097128e-38
0.50172281 -0.45649129 0.60999972 1.097128e-38
0.50540209 -0.45634556 0.60999978 1.097128e-38
0.50817704 -0.45663822 0.60999978 1.097128e-38
0.51189601 -0.45649216 0.60999978 1.097128e-38
0.51469946 -0.45678741 0.60999978 1.097128e-38
0.5184586 -0.45664102 0.60999978 1.097128e-38
0.522241 -0.45649368 0.6099999 1.097128e-38
0.52700293 -0.45671773 0.6099999 1.097128e-38
0.52987671 -0.45619631 0.60999995 1.097128e-38
0.53276539 -0.45649457 0.6099999 1.097128e-38
0.53566617 -0.45679492 0.61000001 1.097128e-38
0.53955615 -0.45664603 0.61000001 1.097128e-38
0.54347068 -0.45649618 0.61000001 1.097128e-38
0.54740989 -0.45634538 0.61000007 1.097128e-38
0.55038154 -0.45664826 0.61000001 1.097128e-38
0.55336583 -0.45695329 0.61000007 1.097128e-38
0.55636585 -0.45642182 0.61000013 1.097128e-38
0.56139576 -0.45665121 0.61000013 1.097128e-38
0.56544942 -0.45649874 0.61000013 1.097128e-38
0.56952912 -0.45634532 0.61000019 1.097128e-38
0.57157886 -0.45711619 0.61000013 1.097128e-38
0.57466674 -0.45657742 0.61000025 1.097128e-38
0.57776785 -0.45603544 0.61000025 1.097128e-38
0.57984424 -0.45681083 0.61000019 1.097128e-38
0.58401722 -0.45665658 0.61000031 1.097128e-38
0.58821762 -0.45650142 0.61000025 1.097128e-38
0.59244543 -0.4563452 0.61000031 1.097128e-38
0.59563529 -0.45665899 0.61000037 1.097128e-38
0.59883928 -0.4569751 0.61000037 1.097128e-38
0.60098463 -0.45602965 0.61000043 1.097128e-38
0.60313714 -0.45681918 0.61000043 1.097128e-38
0.60746336 -0.45666218 0.61000043 1.097128e-38
0.61181843 -0.45650417 0.61000049 1.097128e-38
0.61620259 -0.45634508 0.61000049 1.097128e-38
0.61951083 -0.45666465 0.61000049 1.097128e-38
0.62283385 -0.45698661 0.61000049 1.097128e-38
0.62505913 -0.45602375 0.61000055 1.097128e-38
0.62729192 -0.45682782 0.61000055 1.097128e-38
0.63178009 -0.45666796 0.61000067 1.097128e-38
0.63629866 -0.45650703 0.61000061 1.1063476e-38
0.64084792 -0.45634502 0.61000067 1.1063476e-38
0.64313418 -0.45715922 0.61000061 1.1063476e-38
0.64657915 -0.45659024 0.61000073 1.1063476e-38
0.65003979 -0.45601761 0.61000073 1.1063476e-38
0.65235746 -0.45683682 0.61000073 1.1063476e-38
0.65701675 -0.45667398 0.61000079 1.1063476e-38
0.66170812 -0.45651001 0.61000085 1.1063476e-38
0.66761923 -0.45675975 0.61000085 1.1063476e-38
0.67118883 -0.45617867 0.61000085 1.1063476e-38
0.67357957 -0.45701098 0.61000085 1.1063476e-38
0.67597866 -0.45601124 0.61000097 1.1063476e-38
0.67838627 -0.45684618 0.61000091 1.1063476e-38
0.68322653 -0.45668018 0.61000097 1.1063476e-38
0.68810093 -0.45651305 0.61000097 1.1063476e-38
0.69424343 -0.45676771 0.61000103 1.1063476e-38
0.6979534 -0.45617533 0.61000103 1.1063476e-38
0.70043838 -0.45702386 0.61000103 1.1063476e-38
0.70293212 -0.45600456 0.61000109 1.1063476e-38
0.7054348 -0.45685589 0.61000109 1.1063476e-38
0.71046698 -0.45668668 0.61000109 1.1063476e-38
0.71553528 -0.45651627 0.61000115 1.1063476e-38
0.72064006 -0.45634466 0.61000121 1.1063476e-38
0.72578174 -0.45617181 0.61000121 1.1063476e-38
0.72836655 -0.45703727 0.61000127 1.1063476e-38
0.73356432 -0.45686597 0.61000127 1.1063476e-38
0.73879999 -0.45669341 0.61000133 1.1063476e-38
0.74407399 -0.4565196 0.61000139 1.1063476e-38
0.74938673 -0.45634454 0.61000133 1.1063476e-38
0.75473863 -0.45616817 0.61000139 1.1063476e-38
0.75742936 -0.45705122 0.6100015 1.1063476e-38
0.76284087 -0.45687646 0.61000144 1.1063476e-38
0.76829267 -0.45670044 0.6100015 1.1063476e-38
0.77378511 -0.45652312 0.61000156 1.1063476e-38
0.77931875 -0.45634443 0.61000162 1.1063476e-38
0.78489405 -0.45616436 0.61000168 1.1063476e-38
0.78769743 -0.4570657 0.61000168 1.1063476e-38
0.79333609 -0.45688742 0.61000168 1.1063476e-38
0.79901761 -0.45670778 0.61000174 1.1063476e-38
0.80474252 -0.4565267 0.61000174 1.1063476e-38
0.81051111 -0.45634431 0.6100018 1.1063476e-38
0.81632411 -0.45616049 0.6100018 1.1063476e-38
0.81924731 -0.45708084 0.61000186 1.1063476e-38
0.82512784 -0.45689887 0.61000186 1.1063476e-38
0.83105391 -0.4567154 0.61000192 1.1063476e-38
0.83702612 -0.45653051 0.61000198 1.1063476e-38
0.84304506 -0.45634413 0.61000204 1.1063476e-38
0.8491112 -0.45615637 0.6100021 1.1063476e-38
0.85216224 -0.4570967 0.61000204 1.1063476e-38
0.85830033 -0.45691073 0.61000216 1.1063476e-38
0.86448717 -0.45672333 0.61000216 1.1063476e-38
0.28710681 -0.45445356 0.60999966 1.1063476e-38
0.28946555 -0.4546653 0.60999966 1.1063476e-38
0.29258704 -0.45439887 0.60999966 1.1063476e-38
0.2958529 -0.45467845 0.60999966 1.1063476e-38
0.29838029 -0.45455307 0.60999966 1.1063476e-38
0.30143061 -0.45440182 0.60999966 1.1063476e-38
0.30462679 -0.45457825 0.60999966 1.1063476e-38
0.30719882 -0.45445156 0.60999966 1.1063476e-38
0.31043297 -0.4546296 0.60999966 1.1063476e-38
0.31355619 -0.45447674 0.60999966 1.1063476e-38
0.31617418 -0.45434865 0.60999966 1.1063476e-38
0.31959844 -0.45463467 0.60999966 1.1063476e-38
0.32291135 -0.45436049 0.60999966 1.1063476e-38
0.32544413 -0.45457926 0.60999966 1.1063476e-38
0.32812375 -0.45444995 0.60999966 1.1063476e-38
0.33162901 -0.45473966 0.60999966 1.1063476e-38
0.33502054 -0.45446262 0.6099996 1.1063476e-38
0.33775041 -0.45433176 0.6099996 1.1063476e-38
0.34035707 -0.45455366 0.60999954 1.1063476e-38
0.34311518 -0.45442238 0.60999966 1.1155671e-38
0.3460269 -0.45463252 0.6099996 1.1155671e-38
0.34951523 -0.4545846 0.6099996 1.1155671e-38
0.35302532 -0.45430222 0.60999954 1.1155671e-38
0.35570922 -0.45452729 0.60999954 1.1155671e-38
0.35854921 -0.45439401 0.60999954 1.1155671e-38
0.36154771 -0.45460713 0.6099996 1.1155671e-38
0.36441913 -0.45447335 0.60999954 1.1155671e-38
0.36730617 -0.45433882 0.60999954 1.1155671e-38
0.37035435 -0.45455408 0.6099996 1.1155671e-38
0.37312734 -0.45478395 0.60999954 1.1155671e-38
0.37606174 -0.45464921 0.60999954 1.1155671e-38
0.37901217 -0.45451367 0.6099996 1.1155671e-38
0.38197881 -0.45437741 0.60999954 1.1155671e-38
0.38496178 -0.45424041 0.60999954 1.1155671e-38
0.38781086 -0.45447206 0.6099996 1.1155671e-38
0.39097726 -0.45469138 0.60999954 1.1155671e-38
0.39401001 -0.45455408 0.60999954 1.1155671e-38
0.39705962 -0.45441604 0.60999954 1.1155671e-38
0.40012625 -0.45427725 0.60999954 1.1155671e-38
0.4032101 -0.4548741 0.60999954 1.1155671e-38
0.40631115 -0.45473576 0.60999954 1.1155671e-38
0.40942973 -0.4545967 0.60999954 1.1155671e-38
0.41256583 -0.45445687 0.60999954 1.1155671e-38
0.41571969 -0.4543162 0.60999954 1.1155671e-38
0.41889155 -0.45417476 0.60999954 1.1155671e-38
0.42208132 -0.45478043 0.60999954 1.1155671e-38
0.42448503 -0.45505011 0.60999948 1.1155671e-38
0.42690021 -0.45456922 0.60999948 1.1155671e-38
0.43013585 -0.45442712 0.60999948 1.1155671e-38
0.43339011 -0.45428413 0.60999948 1.1155671e-38
0.43666309 -0.45414037 0.60999948 1.1155671e-38
0.43995497 -0.45475557 0.60999942 1.1155671e-38
0.44243586 -0.45502952 0.60999942 1.1155671e-38
0.44492865 -0.45454091 0.60999948 1.1155671e-38
0.44826856 -0.45439643 0.60999942 1.1155671e-38
0.45162797 -0.45425108 0.60999942 1.1155671e-38
0.45528948 -0.45447764 0.60999942 1.1155671e-38
0.4575538 -0.45515254 0.60999942 1.097128e-38
0.46011299 -0.45465776 0.60999942 1.097128e-38
0.46354198 -0.45451164 0.60999942 1.097128e-38
0.46699131 -0.45436469 0.60999948 1.097128e-38
0.46959108 -0.45386356 0.60999954 1.097128e-38
0.47191286 -0.4545455 0.60999954 1.097128e-38
0.47570458 -0.4547776 0.60999954 1.097128e-38
0.47834325 -0.45427367 0.6099996 1.097128e-38
0.48099512 -0.45455512 0.60999954 1.097128e-38
0.48454866 -0.45440608 0.6099996 1.097128e-38
0.48722714 -0.45468995 0.60999972 1.097128e-38
0.48991913 -0.45418143 0.60999966 1.097128e-38
0.49382803 -0.45441532 0.60999966 1.097128e-38
0.49624574 -0.45511258 0.60999966 1.097128e-38
0.49897867 -0.45460117 0.60999972 1.097128e-38
0.5026412 -0.45444998 0.60999972 1.097128e-38
0.50540209 -0.45393375 0.60999978 1.097128e-38
0.50786811 -0.45463669 0.60999978 1.097128e-38
0.51158512 -0.45448455 0.60999978 1.097128e-38
0.51469946 -0.45435703 0.60999978 1.097128e-38
0.51751733 -0.45464733 0.60999978 1.097128e-38
0.52034688 -0.45493972 0.60999984 1.097128e-38
0.52319103 -0.45441753 0.6099999 1.097128e-38
0.52700293 -0.45426276 0.6099999 1.097128e-38
0.52987671 -0.45455587 0.60999995 1.097128e-38
0.53244376 -0.45445248 0.6099999 1.097128e-38
0.53566617 -0.45432267 0.61000001 1.097128e-38
0.53858215 -0.45461795 0.60999995 1.097128e-38
0.54151034 -0.45491529 0.61000001 1.097128e-38
0.54445398 -0.45438403 0.61000001 1.097128e-38
0.54740989 -0.45384967 0.61000007 1.097128e-38
0.55005068 -0.45457697 0.61000001 1.097128e-38
0.55336583 -0.45444566 0.61000007 1.097128e-38
0.55669993 -0.45431361 0.61000013 1.097128e-38
0.55937868 -0.45504737 0.61000013 1.097128e-38
0.56240755 -0.45450878 0.61000013 1.097128e-38
0.56544942 -0.45396701 0.61000013 1.097128e-38
0.56816703 -0.45470509 0.61000019 1.097128e-38
0.57157886 -0.4545722 0.61000013 1.097128e-38
0.57501054 -0.4544386 0.61000025 1.097128e-38
0.57776779 -0.45433116 0.61000025 1.097128e-38
0.58088577 -0.45463717 0.61000025 1.097128e-38
0.58401722 -0.45408779 0.61000031 1.097128e-38
0.58611399 -0.45486382 0.61000031 1.097128e-38
0.5892728 -0.45431334 0.61000031 1.097128e-38
0.59244543 -0.45462143 0.61000031 1.097128e-38
0.59528011 -0.45451292 0.61000037 1.097128e-38
0.59883928 -0.45437667 0.61000037 1.097128e-38
0.60098463 -0.45429456 0.61000043 1.097128e-38
0.60421693 -0.45460606 0.61000037 1.097128e-38
0.60746336 -0.45404655 0.61000043 1.097128e-38
0.61072791 -0.45435825 0.61000049 1.097128e-38
0.61400688 -0.45467231 0.61000049 1.097128e-38
0.61620259 -0.45458972 0.61000049 1.097128e-38
0.61914247 -0.45447913 0.61000055 1.097128e-38
0.62283385 -0.45434031 0.61000049 1.097128e-38
0.62505913 -0.45425659 0.61000055 1.097128e-38
0.62841207 -0.45457375 0.61000055 1.097128e-38
0.63178009 -0.45400375 0.61000061 1.097128e-38
0.63403559 -0.4548085 0.61000061 1.097128e-38
0.6378125 -0.45466897 0.61000061 1.097128e-38
0.64084792 -0.45455682 0.61000067 1.1063476e-38
0.64313418 -0.45447233 0.61000061 1.1063476e-38
0.64696276 -0.45433083 0.61000067 1.1063476e-38
0.65003979 -0.45421714 0.61000073 1.1063476e-38
0.65235746 -0.45413154 0.61000073 1.1063476e-38
0.65468311 -0.4549489 0.61000073 1.1063476e-38
0.65818757 -0.45436934 0.61000079 1.1063476e-38
0.66170812 -0.45469403 0.61000085 1.1063476e-38
0.66406608 -0.4546085 0.61000079 1.1063476e-38
0.66801494 -0.45446524 0.61000085 1.1063476e-38
0.67118883 -0.45435005 0.61000085 1.1063476e-38
0.67357957 -0.4542633 0.61000085 1.1063476e-38
0.67597866 -0.45417625 0.61000097 1.1063476e-38
0.67959422 -0.45450544 0.61000085 1.1063476e-38
0.68322653 -0.45483559 0.61000097 1.1063476e-38
0.68565953 -0.45474893 0.61000097 1.1063476e-38
0.68810093 -0.45466197 0.61000097 1.1063476e-38
0.6905511 -0.45457473 0.61000097 1.1063476e-38
0.69465464 -0.45442852 0.61000103 1.1063476e-38
0.6979534 -0.45431107 0.61000103 1.1063476e-38
0.70043838 -0.45422256 0.61000103 1.1063476e-38
0.70293212 -0.45413369 0.61000109 1.1063476e-38
0.70669055 -0.45446923 0.61000109 1.1063476e-38
0.71046698 -0.45480579 0.61000109 1.1063476e-38
0.7129966 -0.45471737 0.61000121 1.1063476e-38
0.71553528 -0.45462865 0.61000115 1.1063476e-38
0.71808308 -0.4545396 0.61000115 1.1063476e-38
0.72064006 -0.45445019 0.61000121 1.1063476e-38
0.72406477 -0.45433053 0.61000121 1.1063476e-38
0.72836655 -0.45418018 0.61000127 1.1063476e-38
0.73096067 -0.45504355 0.61000133 1.1063476e-38
0.73356432 -0.45399851 0.61000127 1.1063476e-38
0.73617738 -0.45486471 0.61000133 1.1063476e-38
0.73879999 -0.4547748 0.61000133 1.1063476e-38
0.74143213 -0.45468456 0.61000133 1.1063476e-38
0.74584168 -0.45453343 0.61000133 1.1063476e-38
0.74938673 -0.45441186 0.61000133 1.1063476e-38
0.75205779 -0.45432028 0.61000144 1.1063476e-38
0.75473863 -0.45422834 0.61000139 1.1063476e-38
0.75742936 -0.45413607 0.6100015 1.1063476e-38
0.76013017 -0.455017 0.6100015 1.1063476e-38
0.76284087 -0.45492584 0.61000144 1.1063476e-38
0.76556176 -0.4548344 0.6100015 1.1063476e-38
0.76829267 -0.45474255 0.6100015 1.1063476e-38
0.7719509 -0.45461956 0.61000156 1.1063476e-38
0.77654672 -0.45446503 0.61000156 1.1063476e-38
0.77931875 -0.45437187 0.61000162 1.1063476e-38
0.78210121 -0.45427829 0.61000162 1.1063476e-38
0.78489405 -0.45418441 0.61000168 1.1063476e-38
0.78769743 -0.45409015 0.61000168 1.1063476e-38
0.79051149 -0.45498931 0.61000162 1.1063476e-38
0.79333609 -0.45489621 0.61000168 1.1063476e-38
0.79617155 -0.45480275 0.61000168 1.1063476e-38
0.79901761 -0.45470899 0.61000174 1.1063476e-38
0.80187464 -0.45461485 0.61000174 1.1063476e-38
0.80474252 -0.45452029 0.61000174 1.1063476e-38
0.8076213 -0.45442545 0.61000174 1.1063476e-38
0.81051111 -0.45433021 0.6100018 1.1063476e-38
0.81341201 -0.4542346 0.6100018 1.1063476e-38
0.81632411 -0.45413864 0.6100018 1.1063476e-38
0.81924736 -0.45404229 0.6100018 1.1063476e-38
0.82218194 -0.45496041 0.61000192 1.1063476e-38
0.82512784 -0.45486534 0.61000186 1.1063476e-38
0.82808512 -0.45476982 0.61000186 1.1063476e-38
0.83105391 -0.45467395 0.61000192 1.1063476e-38
0.8340342 -0.45457768 0.61000198 1.1063476e-38
0.83702612 -0.45448112 0.61000198 1.1063476e-38
0.84002972 -0.45438415 0.61000198 1.1063476e-38
0.84304506 -0.45428675 0.61000204 1.1063476e-38
0.84607214 -0.45418903 0.61000204 1.1063476e-38
0.8491112 -0.45409089 0.6100021 1.1063476e-38
0.85216224 -0.45502716 0.61000204 1.1063476e-38
0.85522527 -0.45493028 0.6100021 1.1063476e-38
0.85830033 -0.45483303 0.61000216 1.1063476e-38
0.86138755 -0.45473537 0.61000216 1.1063476e-38
0.86448717 -0.45463741 0.61000216 1.1063476e-38
0.86759889 -0.45453897 0.61000222 1.1063476e-38
0.28698298 -0.45149606 0.60999966 1.1063476e-38
0.28958997 -0.45168763 0.60999966 1.1063476e-38
0.29258689 -0.45152903 0.60999966 1.1063476e-38
0.29560089 -0.45136946 0.60999966 1.1063476e-38
0.29825363 -0.45156199 0.60999966 1.1063476e-38
0.30143076 -0.45150647 0.60999966 1.1063476e-38
0.30449852 -0.4515689 0.60999966 1.1063476e-38
0.3070699 -0.45143452 0.60999966 1.1063476e-38
0.31043312 -0.45170823 0.60999966 1.1063476e-38
0.31368679 -0.45142713 0.60999966 1.1063476e-38
0.31630543 -0.45129114 0.60999966 1.1063476e-38
0.31959856 -0.45146012 0.60999966 1.1063476e-38
0.32291135 -0.45163065 0.60999966 1.1063476e-38
0.3255778 -0.45149395 0.60999966 1.1063476e-38
0.32825813 -0.45135659 0.60999966 1.1063476e-38
0.33162913 -0.45152766 0.60999966 1.1063476e-38
0.33502054 -0.45170051 0.6099996 1.1063476e-38
0.33775043 -0.4515624 0.6099996 1.1063476e-38
0.34049463 -0.45142359 0.6099996 1.1063476e-38
0.34325346 -0.45128399 0.60999966 1.1155671e-38
0.34588784 -0.45149937 0.6099996 1.1155671e-38
0.34951523 -0.4517839 0.6099996 1.1155671e-38
0.35302532 -0.45149219 0.60999954 1.1155671e-38
0.35585088 -0.45135111 0.60999954 1.1155671e-38
0.3586916 -0.45120925 0.60999954 1.1155671e-38
0.36140451 -0.45142764 0.6099996 1.1155671e-38
0.36441913 -0.45163298 0.60999954 1.1155671e-38
0.36730617 -0.45149076 0.60999954 1.1155671e-38
0.3702088 -0.45134777 0.6099996 1.1155671e-38
0.37327367 -0.45155507 0.60999954 1.1155671e-38
0.37606174 -0.45177782 0.60999954 1.1155671e-38
0.37901217 -0.45163441 0.6099996 1.1155671e-38
0.38197881 -0.45149025 0.6099996 1.1155671e-38
0.38496178 -0.45134532 0.60999954 1.1155671e-38
0.38796121 -0.45119953 0.6099996 1.1155671e-38
0.39097726 -0.45178026 0.6099996 1.1155671e-38
0.39401001 -0.45163494 0.60999954 1.1155671e-38
0.39705962 -0.45148876 0.6099996 1.1155671e-38
0.40012625 -0.45134181 0.60999954 1.1155671e-38
0.40336472 -0.45155486 0.60999954 1.1155671e-38
0.40631115 -0.45178387 0.60999954 1.1155671e-38
0.40942973 -0.45163649 0.60999954 1.1155671e-38
0.41256583 -0.45148826 0.60999948 1.1155671e-38
0.41571969 -0.45133924 0.60999954 1.1155671e-38
0.41889155 -0.45118931 0.60999954 1.1155671e-38
0.42208135 -0.45178649 0.60999954 1.1155671e-38
0.42448503 -0.45204979 0.60999948 1.1155671e-38
0.42690024 -0.45156252 0.60999954 1.1155671e-38
0.43013585 -0.45141172 0.60999948 1.1155671e-38
0.43339014 -0.45126015 0.60999954 1.1155671e-38
0.43666306 -0.45110762 0.60999948 1.1155671e-38
0.43995497 -0.45171404 0.60999942 1.1155671e-38
0.4424358 -0.4519814 0.60999948 1.1155671e-38
0.44492865 -0.45148617 0.60999948 1.1155671e-38
0.44826853 -0.45133275 0.60999942 1.1155671e-38
0.451628 -0.45117846 0.60999942 1.1155671e-38
0.45500705 -0.45179313 0.60999948 1.1155671e-38
0.4575538 -0.45206413 0.60999948 1.097128e-38
0.46011299 -0.45156252 0.60999942 1.097128e-38
0.46354198 -0.45140731 0.60999942 1.097128e-38
0.46699134 -0.45125121 0.60999948 1.097128e-38
0.46959108 -0.45152324 0.60999954 1.097128e-38
0.47220373 -0.45179707 0.60999954 1.097128e-38
0.47570461 -0.4516409 0.60999954 1.097128e-38
0.47834325 -0.45112994 0.6099996 1.097128e-38
0.48099512 -0.45140433 0.60999954 1.097128e-38
0.48454866 -0.45124584 0.6099996 1.097128e-38
0.48722714 -0.45152259 0.60999972 1.097128e-38
0.49021885 -0.45139015 0.60999966 1.097128e-38
0.49352646 -0.45164141 0.60999966 1.097128e-38
0.49624568 -0.45192116 0.60999972 1.097128e-38
0.4989787 -0.45140249 0.60999972 1.097128e-38
0.5026412 -0.45124155 0.60999972 1.097128e-38
0.50540209 -0.45152193 0.60999972 1.097128e-38
0.50817704 -0.4518041 0.60999978 1.097128e-38
0.51189601 -0.4516432 0.60999978 1.097128e-38
0.51469946 -0.45111647 0.6099999 1.097128e-38
0.51751733 -0.45139933 0.60999984 1.097128e-38
0.52034688 -0.45168415 0.60999984 1.097128e-38
0.52350771 -0.45154843 0.6099999 1.097128e-38
0.52732158 -0.45138463 0.6099999 1.097128e-38
0.52987671 -0.45209515 0.6099999 1.097128e-38
0.53276539 -0.45156229 0.6099999 1.097128e-38
0.53566617 -0.45102632 0.61000001 1.097128e-38
0.53858209 -0.45131379 0.61000001 1.097128e-38
0.54151034 -0.45160335 0.61000001 1.097128e-38
0.54478168 -0.45146504 0.61000001 1.097128e-38
0.54740989 -0.45135397 0.61000007 1.097128e-38
0.55038154 -0.45164561 0.61000001 1.097128e-38
0.55336583 -0.45110217 0.61000007 1.097128e-38
0.55636585 -0.45139396 0.61000013 1.097128e-38
0.55937868 -0.45168787 0.61000013 1.097128e-38
0.5627448 -0.45154777 0.61000013 1.097128e-38
0.56544942 -0.45143527 0.61000013 1.097128e-38
0.56850755 -0.45173132 0.61000013 1.097128e-38
0.57157886 -0.45118022 0.61000013 1.097128e-38
0.57466674 -0.45147645 0.61000025 1.097128e-38
0.57776785 -0.45177484 0.61000025 1.097128e-38
0.58123302 -0.45163298 0.61000019 1.097128e-38
0.58401722 -0.45151895 0.61000031 1.097128e-38
0.58611399 -0.45143312 0.61000031 1.097128e-38
0.58962446 -0.45128942 0.61000031 1.097128e-38
0.59244543 -0.45203578 0.61000031 1.097128e-38
0.59563529 -0.45147568 0.61000037 1.097128e-38
0.59883928 -0.45091212 0.61000037 1.097128e-38
0.60098463 -0.45169184 0.61000043 1.097128e-38
0.60457683 -0.45154715 0.61000037 1.097128e-38
0.60746336 -0.45143092 0.61000043 1.097128e-38
0.61036438 -0.45131406 0.61000049 1.097128e-38
0.61400688 -0.45116737 0.61000049 1.097128e-38
0.61620259 -0.4519566 0.61000049 1.097128e-38
0.61951083 -0.451386 0.61000049 1.097128e-38
0.62283385 -0.45169395 0.61000049 1.097128e-38
0.62505913 -0.4516058 0.61000055 1.097128e-38
0.62878543 -0.45145822 0.61000055 1.097128e-38
0.63178009 -0.4513396 0.61000061 1.097128e-38
0.63403559 -0.45125023 0.61000061 1.097128e-38
0.63743401 -0.45156118 0.61000061 1.097128e-38
0.64084792 -0.45187449 0.61000067 1.097128e-38
0.64313418 -0.45178545 0.61000061 1.1063476e-38
0.64619547 -0.45166624 0.61000067 1.1063476e-38
0.65003979 -0.45151651 0.61000073 1.1063476e-38
0.65235746 -0.45142621 0.61000073 1.1063476e-38
0.65468311 -0.45133567 0.61000073 1.1063476e-38
0.65857786 -0.451184 0.61000073 1.1063476e-38
0.66170812 -0.45197007 0.61000085 1.1063476e-38
0.66406608 -0.45097023 0.61000079 1.1063476e-38
0.66722351 -0.45175895 0.61000079 1.1063476e-38
0.67118883 -0.45160714 0.61000085 1.1063476e-38
0.67357957 -0.45151561 0.61000085 1.1063476e-38
0.67597866 -0.45142376 0.61000097 1.1063476e-38
0.67999691 -0.45126998 0.61000085 1.1063476e-38
0.68322653 -0.45206863 0.61000097 1.1063476e-38
0.68565953 -0.4510532 0.61000097 1.1063476e-38
0.68810093 -0.45188528 0.61000097 1.1063476e-38
0.6905511 -0.45179319 0.61000097 1.1063476e-38
0.69383222 -0.45166972 0.61000103 1.1063476e-38
0.6979534 -0.45151472 0.61000103 1.1063476e-38
0.70043838 -0.45142126 0.61000103 1.1063476e-38
0.70293212 -0.45132744 0.61000109 1.1063476e-38
0.70710915 -0.45117033 0.61000109 1.1063476e-38
0.71046698 -0.45198447 0.61000109 1.1063476e-38
0.7129966 -0.45094886 0.61000121 1.1063476e-38
0.71553528 -0.45179719 0.61000115 1.1063476e-38
0.71808308 -0.45170307 0.61000115 1.1063476e-38
0.72064006 -0.45160857 0.61000121 1.1063476e-38
0.72492319 -0.45145035 0.61000121 1.1063476e-38
0.72836655 -0.45132309 0.61000127 1.1063476e-38
0.73096067 -0.45122725 0.61000133 1.1063476e-38
0.73356432 -0.45113105 0.61000127 1.1063476e-38
0.73617738 -0.45103449 0.61000133 1.1063476e-38
0.73879999 -0.45189688 0.61000133 1.1063476e-38
0.74143213 -0.45180136 0.61000133 1.1063476e-38
0.74495786 -0.45167351 0.61000139 1.1063476e-38
0.74938673 -0.45151278 0.61000133 1.1063476e-38
0.75205779 -0.4514159 0.61000144 1.1063476e-38
0.75473863 -0.45131859 0.61000139 1.1063476e-38
0.75742936 -0.45122093 0.6100015 1.1063476e-38
0.76013017 -0.45112297 0.6100015 1.1063476e-38
0.76284087 -0.45199996 0.61000144 1.1063476e-38
0.76556176 -0.45190305 0.6100015 1.1063476e-38
0.76829267 -0.45180577 0.6100015 1.1063476e-38
0.77286798 -0.45164284 0.61000156 1.1063476e-38
0.77654672 -0.45151174 0.61000156 1.1063476e-38
0.77931875 -0.45141304 0.61000162 1.1063476e-38
0.78210121 -0.45131391 0.61000162 1.1063476e-38
0.78489405 -0.45121443 0.61000168 1.1063476e-38
0.78769743 -0.45111459 0.61000168 1.1063476e-38
0.79051149 -0.4510144 0.61000162 1.1063476e-38
0.79333609 -0.45190939 0.61000168 1.1063476e-38
0.79617155 -0.4518103 0.61000168 1.1063476e-38
0.79901761 -0.45171082 0.61000174 1.1063476e-38
0.80187464 -0.45161098 0.61000174 1.1063476e-38
0.80474252 -0.45151073 0.61000174 1.1063476e-38
0.8076213 -0.45141011 0.61000174 1.1063476e-38
0.81051111 -0.45130908 0.6100018 1.1063476e-38
0.81341201 -0.4512077 0.6100018 1.1063476e-38
0.81632411 -0.45110592 0.6100018 1.1063476e-38
0.81924731 -0.45100373 0.61000186 1.1063476e-38
0.82218194 -0.45191598 0.61000192 1.1063476e-38
0.82512784 -0.45181501 0.61000186 1.1063476e-38
0.82808512 -0.45171362 0.61000186 1.1063476e-38
0.83105391 -0.45161182 0.61000192 1.1063476e-38
0.8340342 -0.45150959 0.61000198 1.1063476e-38
0.83702612 -0.45140705 0.61000198 1.1063476e-38
0.84002972 -0.45130408 0.61000198 1.1063476e-38
0.84304506 -0.45120066 0.61000204 1.1063476e-38
0.84607214 -0.45109689 0.61000204 1.1063476e-38
0.8491112 -0.45202541 0.6100021 1.1063476e-38
0.85216224 -0.45192286 0.61000204 1.1063476e-38
0.85522527 -0.4518199 0.6100021 1.1063476e-38
0.85830033 -0.45171648 0.61000216 1.1063476e-38
0.86138755 -0.45161265 0.61000216 1.1063476e-38
0.86448717 -0.45150849 0.61000216 1.1063476e-38
0.86759889 -0.45140386 0.61000222 1.1063476e-38
0.28685915 -0.44853979 0.60999966 1.1063476e-38
0.28934112 -0.4484002 0.60999966 1.1063476e-38
0.29258701 -0.44865915 0.60999966 1.1063476e-38
0.2957269 -0.44837338 0.60999966 1.1063476e-38
0.298127 -0.44857198 0.60999966 1.1063476e-38
0.30124873 -0.44858959 0.60999966 1.1063476e-38
0.30462679 -0.44854605 0.60999966 1.1063476e-38
0.30719882 -0.44840395 0.60999966 1.1063476e-38
0.31043327 -0.44856215 0.60999966 1.1063476e-38
0.31368679 -0.44872183 0.60999966 1.1063476e-38
0.3163054 -0.44857889 0.60999966 1.1063476e-38
0.31959844 -0.44828558 0.60999966 1.1063476e-38
0.32304433 -0.44855207 0.60999966 1.1063476e-38
0.32571146 -0.44840735 0.60999966 1.1063476e-38
0.32825813 -0.44861251 0.60999966 1.1063476e-38
0.33162898 -0.44831577 0.60999966 1.1063476e-38
0.33515668 -0.44858566 0.6099996 1.1063476e-38
0.33788726 -0.4484393 0.6099996 1.1063476e-38
0.34049463 -0.4486469 0.6099996 1.1063476e-38
0.34325346 -0.44849998 0.60999966 1.1155671e-38
0.3460269 -0.44835228 0.6099996 1.1155671e-38
0.34951535 -0.44851637 0.60999966 1.1155671e-38
0.35302529 -0.44868213 0.60999954 1.1155671e-38
0.35585088 -0.44853354 0.60999954 1.1155671e-38
0.3586916 -0.44838417 0.60999954 1.1155671e-38
0.36154768 -0.44823396 0.6099996 1.1155671e-38
0.36427516 -0.44844532 0.60999954 1.1155671e-38
0.36730617 -0.44864267 0.6099996 1.1155671e-38
0.3702088 -0.44849199 0.6099996 1.1155671e-38
0.37312734 -0.44834048 0.6099996 1.1155671e-38
0.37620884 -0.44853964 0.60999954 1.1155671e-38
0.37901217 -0.44875515 0.6099996 1.1155671e-38
0.38197881 -0.44860312 0.6099996 1.1155671e-38
0.38496181 -0.44845027 0.60999954 1.1155671e-38
0.38796121 -0.44829652 0.6099996 1.1155671e-38
0.39082605 -0.44851321 0.60999954 1.1155671e-38
0.39401001 -0.44871575 0.60999954 1.1155671e-38
0.39705962 -0.44856146 0.60999954 1.1155671e-38
0.40012628 -0.44840634 0.60999954 1.1155671e-38
0.40321007 -0.44825035 0.60999954 1.1155671e-38
0.40631115 -0.44883198 0.60999954 1.1155671e-38
0.40942973 -0.44867623 0.60999954 1.1155671e-38
0.41256583 -0.44851971 0.60999954 1.1155671e-38
0.41571969 -0.44836223 0.60999954 1.1155671e-38
0.41889155 -0.44820389 0.60999954 1.1155671e-38
0.42208135 -0.44879258 0.60999954 1.1155671e-38
0.42448503 -0.4490495 0.60999948 1.1155671e-38
0.42690024 -0.44855577 0.60999954 1.1155671e-38
0.43013585 -0.44839638 0.60999954 1.1155671e-38
0.43339014 -0.44823611 0.60999954 1.1155671e-38
0.43693659 -0.44844031 0.60999948 1.1155671e-38
0.439955 -0.44867253 0.60999954 1.1155671e-38
0.4424358 -0.44893327 0.60999948 1.1155671e-38
0.44492865 -0.44843143 0.60999948 1.1155671e-38
0.44826853 -0.44826913 0.60999948 1.1155671e-38
0.45190874 -0.44847617 0.60999942 1.1155671e-38
0.45500702 -0.44871151 0.60999948 1.1155671e-38
0.4575538 -0.44897583 0.60999942 1.097128e-38
0.46011299 -0.4484674 0.60999942 1.097128e-38
0.46354198 -0.44830298 0.60999948 1.097128e-38
0.46699134 -0.44813767 0.60999948 1.097128e-38
0.46959108 -0.44918293 0.60999954 1.097128e-38
0.47220373 -0.44866973 0.60999954 1.097128e-38
0.47570461 -0.44850421 0.60999954 1.097128e-38
0.47834325 -0.44798627 0.60999954 1.097128e-38
0.48099512 -0.44825357 0.60999954 1.097128e-38
0.48425165 -0.44849488 0.6099996 1.097128e-38
0.48722714 -0.4483552 0.60999972 1.097128e-38
0.48991913 -0.44862542 0.60999966 1.097128e-38
0.49352649 -0.4484573 0.60999966 1.097128e-38
0.49624574 -0.44872981 0.60999966 1.097128e-38
0.49897867 -0.4482038 0.60999972 1.097128e-38
0.50294739 -0.44841972 0.60999972 1.097128e-38
0.50540209 -0.44911009 0.60999972 1.097128e-38
0.50817704 -0.44858095 0.60999978 1.097128e-38
0.51189601 -0.44841015 0.60999978 1.097128e-38
0.51469946 -0.44787595 0.60999984 1.097128e-38
0.51720357 -0.44857192 0.60999984 1.097128e-38
0.52034688 -0.44842857 0.60999984 1.097128e-38
0.52319103 -0.44870645 0.6099999 1.097128e-38
0.52700293 -0.44853389 0.6099999 1.097128e-38
0.52987671 -0.44881421 0.60999995 1.097128e-38
0.53276539 -0.44827366 0.6099999 1.097128e-38
0.53566617 -0.44855404 0.61000001 1.097128e-38
0.53825742 -0.4484376 0.60999995 1.097128e-38
0.54151034 -0.44829145 0.61000001 1.097128e-38
0.54445398 -0.4485738 0.61000001 1.097128e-38
0.54740995 -0.44885826 0.61000001 1.097128e-38
0.55038154 -0.44831011 0.61000001 1.097128e-38
0.55336583 -0.44859457 0.61000007 1.097128e-38
0.55603176 -0.44847655 0.61000007 1.097128e-38
0.55937868 -0.44832838 0.61000013 1.097128e-38
0.56240755 -0.4486149 0.61000013 1.097128e-38
0.56544942 -0.44890353 0.61000013 1.097128e-38
0.56850755 -0.44834757 0.61000013 1.097128e-38
0.57157886 -0.44863629 0.61000013 1.097128e-38
0.57432288 -0.44851661 0.61000019 1.097128e-38
0.57776785 -0.4483664 0.61000025 1.097128e-38
0.58088577 -0.44865716 0.61000025 1.097128e-38
0.58401728 -0.44895014 0.61000031 1.097128e-38
0.58611399 -0.44800246 0.61000031 1.097128e-38
0.58892101 -0.44873956 0.61000037 1.097128e-38
0.59244543 -0.44858825 0.61000031 1.097128e-38
0.59599048 -0.44843602 0.61000037 1.097128e-38
0.59883922 -0.44831365 0.61000043 1.097128e-38
0.60098469 -0.44822159 0.61000037 1.097128e-38
0.60421693 -0.44851726 0.61000037 1.097128e-38
0.60746336 -0.44881526 0.61000043 1.097128e-38
0.61109143 -0.44866189 0.61000049 1.097128e-38
0.61400688 -0.44853866 0.61000043 1.097128e-38
0.61620259 -0.44844583 0.61000049 1.097128e-38
0.61987925 -0.44829044 0.61000055 1.097128e-38
0.62283385 -0.44904763 0.61000049 1.097128e-38
0.62505913 -0.44807142 0.61000055 1.097128e-38
0.6280387 -0.44883108 0.61000055 1.097128e-38
0.63178009 -0.44867536 0.61000061 1.097128e-38
0.63403559 -0.44858152 0.61000061 1.097128e-38
0.63705558 -0.4484559 0.61000061 1.097128e-38
0.64084792 -0.44829807 0.61000067 1.097128e-38
0.64313418 -0.44909859 0.61000061 1.097128e-38
0.64657915 -0.44850898 0.61000067 1.097128e-38
0.65003979 -0.44791561 0.61000073 1.1063476e-38
0.65235746 -0.44872093 0.61000073 1.1063476e-38
0.65468311 -0.44862574 0.61000073 1.1063476e-38
0.65779728 -0.44849825 0.61000079 1.1063476e-38
0.66170812 -0.44833812 0.61000085 1.1063476e-38
0.66406608 -0.44824159 0.61000079 1.1063476e-38
0.66761923 -0.44855243 0.61000085 1.1063476e-38
0.67118883 -0.44794998 0.61000085 1.1063476e-38
0.67357957 -0.44876796 0.61000085 1.1063476e-38
0.67597866 -0.44867128 0.61000097 1.1063476e-38
0.67919159 -0.44854191 0.61000091 1.1063476e-38
0.68322659 -0.4483794 0.61000097 1.1063476e-38
0.68565953 -0.44828141 0.61000097 1.1063476e-38
0.68810093 -0.44818306 0.61000097 1.1063476e-38
0.6905511 -0.44901159 0.61000097 1.1063476e-38
0.69424349 -0.44840091 0.61000103 1.1063476e-38
0.6979534 -0.44871837 0.61000103 1.1063476e-38
0.70043838 -0.44861996 0.61000103 1.1063476e-38
0.70293212 -0.44852114 0.61000109 1.1063476e-38
0.70627195 -0.44838884 0.61000109 1.1063476e-38
0.71046698 -0.4482227 0.61000109 1.1063476e-38
0.7129966 -0.4481225 0.61000121 1.1063476e-38
0.71553528 -0.44802192 0.61000115 1.1063476e-38
0.71808308 -0.44886652 0.61000115 1.1063476e-38
0.72064006 -0.44876695 0.61000121 1.1063476e-38
0.72406477 -0.44863355 0.61000121 1.1063476e-38
0.72836655 -0.448466 0.61000127 1.1063476e-38
0.73096067 -0.44836497 0.61000133 1.1063476e-38
0.73356432 -0.44826359 0.61000127 1.1063476e-38
0.73617738 -0.44816178 0.61000133 1.1063476e-38
0.73879999 -0.44805965 0.61000133 1.1063476e-38
0.74143213 -0.44891822 0.61000133 1.1063476e-38
0.74584168 -0.44874945 0.61000133 1.1063476e-38
0.74938673 -0.44861376 0.61000133 1.1063476e-38
0.75205779 -0.44851145 0.61000144 1.1063476e-38
0.75473863 -0.44840884 0.61000139 1.1063476e-38
0.75742936 -0.44830582 0.6100015 1.1063476e-38
0.76013017 -0.44820249 0.6100015 1.1063476e-38
0.76284087 -0.44809872 0.61000144 1.1063476e-38
0.76556176 -0.44897166 0.6100015 1.1063476e-38
0.76829267 -0.44886893 0.6100015 1.1063476e-38
0.7719509 -0.44873133 0.61000156 1.1063476e-38
0.77654672 -0.44855845 0.61000156 1.1063476e-38
0.77931875 -0.4484542 0.61000162 1.1063476e-38
0.78210121 -0.44834954 0.61000162 1.1063476e-38
0.78489405 -0.44824445 0.61000168 1.1063476e-38
0.78769743 -0.44813904 0.61000168 1.1063476e-38
0.79051149 -0.44803321 0.61000162 1.1063476e-38
0.79333609 -0.44892257 0.61000168 1.1063476e-38
0.79617155 -0.44881779 0.61000168 1.1063476e-38
0.79901761 -0.44871265 0.61000174 1.1063476e-38
0.80187464 -0.44860709 0.61000174 1.1063476e-38
0.80474252 -0.44850111 0.61000174 1.1063476e-38
0.8076213 -0.44839478 0.61000174 1.1063476e-38
0.81051111 -0.44828796 0.6100018 1.1063476e-38
0.81341201 -0.44818076 0.6100018 1.1063476e-38
0.81632411 -0.44807321 0.6100018 1.1063476e-38
0.81924742 -0.44897807 0.6100018 1.1063476e-38
0.82218194 -0.44887155 0.61000192 1.1063476e-38
0.82512784 -0.44876468 0.61000186 1.1063476e-38
0.82808512 -0.44865736 0.61000186 1.1063476e-38
0.83105391 -0.44854969 0.61000192 1.1063476e-38
0.8340342 -0.44844151 0.61000198 1.1063476e-38
0.83702612 -0.44833297 0.61000198 1.1063476e-38
0.84002972 -0.44822401 0.61000198 1.1063476e-38
0.84304506 -0.44811457 0.61000204 1.1063476e-38
0.84607214 -0.44903547 0.61000204 1.1063476e-38
0.8491112 -0.44892719 0.6100021 1.1063476e-38
0.85216224 -0.44881856 0.61000204 1.1063476e-38
0.85522527 -0.44870946 0.6100021 1.1063476e-38
0.85830033 -0.44859993 0.61000216 1.1063476e-38
0.86138755 -0.44848993 0.61000216 1.1063476e-38
0.86448717 -0.44837958 0.61000216 1.1063476e-38
0.86759889 -0.44826871 0.61000222 1.1063476e-38
0.28698298 -0.44556957 0.60999966 1.1063476e-38
0.28946555 -0.4454225 0.60999966 1.1063476e-38
0.29258716 -0.44556844 0.60999966 1.1063476e-38
0.2958529 -0.4453761 0.60999966 1.1063476e-38
0.29825363 -0.44556791 0.60999966 1.1063476e-38
0.30161291 -0.44551441 0.60999966 1.1063476e-38
0.30475506 -0.44552201 0.60999966 1.1063476e-38
0.30719882 -0.4457159 0.60999966 1.1063476e-38
0.31043315 -0.44541606 0.60999966 1.1063476e-38
0.31381738 -0.4456706 0.60999966 1.1063476e-38
0.31643668 -0.44551975 0.60999966 1.1063476e-38
0.31959844 -0.44556448 0.60999966 1.1063476e-38
0.32291135 -0.44548801 0.60999966 1.1063476e-38
0.3255778 -0.44533533 0.60999966 1.1063476e-38
0.32839248 -0.44551754 0.60999966 1.1063476e-38
0.33162901 -0.44556275 0.60999966 1.1063476e-38
0.33502051 -0.44548532 0.60999966 1.1063476e-38
0.33775041 -0.44533086 0.6099996 1.1063476e-38
0.34063226 -0.44551516 0.60999966 1.1155671e-38
0.34325346 -0.44571593 0.60999966 1.1155671e-38
0.3460269 -0.44556087 0.6099996 1.1155671e-38
0.34951523 -0.44524887 0.60999966 1.1155671e-38
0.35316619 -0.44551277 0.6099996 1.1155671e-38
0.35585088 -0.44571596 0.60999954 1.1155671e-38
0.3586916 -0.44555902 0.60999954 1.1155671e-38
0.36154771 -0.44540122 0.6099996 1.1155671e-38
0.36441913 -0.44524258 0.60999954 1.1155671e-38
0.36716142 -0.44544682 0.60999954 1.1155671e-38
0.37020883 -0.44563615 0.6099996 1.1155671e-38
0.37312734 -0.44547689 0.60999954 1.1155671e-38
0.37606174 -0.44531673 0.60999954 1.1155671e-38
0.37916011 -0.44550776 0.6099996 1.1155671e-38
0.38197881 -0.44571599 0.60999954 1.1155671e-38
0.38496181 -0.44555515 0.60999954 1.1155671e-38
0.38796121 -0.44539344 0.6099996 1.1155671e-38
0.39097726 -0.44523078 0.60999954 1.1155671e-38
0.39385796 -0.44544011 0.60999954 1.1155671e-38
0.39705962 -0.44563419 0.60999954 1.1155671e-38
0.40012625 -0.44547087 0.60999954 1.1155671e-38
0.4032101 -0.44530666 0.60999954 1.1155671e-38
0.40631115 -0.44588 0.60999954 1.1155671e-38
0.40942973 -0.44571602 0.60999954 1.1155671e-38
0.41256583 -0.4455511 0.60999954 1.1155671e-38
0.41571972 -0.44538528 0.60999954 1.1155671e-38
0.41889155 -0.44521847 0.60999954 1.1155671e-38
0.42208135 -0.4457987 0.60999954 1.1155671e-38
0.42448503 -0.44604918 0.60999948 1.1155671e-38
0.42690021 -0.44554901 0.60999948 1.1155671e-38
0.43013585 -0.44538102 0.60999954 1.1155671e-38
0.43339011 -0.44521207 0.60999954 1.1155671e-38
0.43666303 -0.44579977 0.60999948 1.1155671e-38
0.439955 -0.44563103 0.60999948 1.1155671e-38
0.4424358 -0.44588515 0.60999948 1.1155671e-38
0.44492862 -0.44537663 0.60999948 1.1155671e-38
0.44826853 -0.44520545 0.60999948 1.1155671e-38
0.451628 -0.44580087 0.60999942 1.1155671e-38
0.45500702 -0.44562995 0.60999948 1.1155671e-38
0.4575538 -0.44588745 0.60999942 1.097128e-38
0.46011299 -0.44537222 0.60999942 1.097128e-38
0.46354198 -0.44519871 0.60999942 1.097128e-38
0.46727964 -0.4453986 0.60999948 1.097128e-38
0.46959108 -0.44606251 0.60999954 1.097128e-38
0.47220373 -0.44554234 0.60999954 1.097128e-38
0.47570461 -0.44536754 0.60999954 1.097128e-38
0.47834325 -0.44484255 0.60999954 1.097128e-38
0.48069987 -0.44551158 0.6099996 1.097128e-38
0.48454863 -0.44571602 0.60999966 1.097128e-38
0.48722714 -0.44518787 0.60999966 1.097128e-38
0.48991913 -0.44545087 0.60999966 1.097128e-38
0.49352646 -0.44527316 0.60999966 1.097128e-38
0.49624568 -0.44553837 0.60999972 1.097128e-38
0.49928299 -0.44538984 0.60999972 1.097128e-38
0.5026412 -0.4456262 0.60999972 1.097128e-38
0.50540209 -0.44589433 0.60999972 1.097128e-38
0.50817704 -0.4453578 0.60999978 1.097128e-38
0.51189601 -0.44517708 0.60999978 1.097128e-38
0.51469946 -0.4454456 0.60999978 1.097128e-38
0.51751733 -0.4457159 0.60999984 1.097128e-38
0.52034688 -0.445173 0.60999984 1.097128e-38
0.52319103 -0.4454433 0.6099999 1.097128e-38
0.52668428 -0.44568524 0.6099999 1.097128e-38
0.52987671 -0.44553328 0.6099999 1.097128e-38
0.53308707 -0.44538048 0.6099999 1.097128e-38
0.53566617 -0.44608179 0.61000001 1.097128e-38
0.53858215 -0.44553226 0.60999995 1.097128e-38
0.54151034 -0.44497955 0.61000001 1.097128e-38
0.54412621 -0.44568476 0.61000001 1.097128e-38
0.54740995 -0.44553065 0.61000001 1.097128e-38
0.55071241 -0.44537565 0.61000001 1.097128e-38
0.55336583 -0.44608697 0.61000007 1.097128e-38
0.55636585 -0.44552958 0.61000013 1.097128e-38
0.55937868 -0.44496891 0.61000013 1.097128e-38
0.56207031 -0.44568419 0.61000013 1.097128e-38
0.56544948 -0.44552788 0.61000013 1.097128e-38
0.56884807 -0.44537067 0.61000013 1.097128e-38
0.57157886 -0.44609231 0.61000013 1.097128e-38
0.57466674 -0.44552678 0.61000025 1.097128e-38
0.57776785 -0.44495794 0.61000025 1.097128e-38
0.58053857 -0.44568372 0.61000019 1.097128e-38
0.58401728 -0.44552505 0.61000031 1.097128e-38
0.58611399 -0.44542944 0.61000031 1.097128e-38
0.5892728 -0.44571564 0.61000025 1.097128e-38
0.59244543 -0.44514072 0.61000031 1.097128e-38
0.59563529 -0.44542691 0.61000037 1.097128e-38
0.59883928 -0.44571528 0.61000037 1.097128e-38
0.60098469 -0.44561887 0.61000037 1.097128e-38
0.60385698 -0.44548979 0.61000037 1.097128e-38
0.60746336 -0.44532773 0.61000043 1.097128e-38
0.61072791 -0.44561774 0.61000049 1.097128e-38
0.61400688 -0.44590995 0.61000049 1.097128e-38
0.61620259 -0.44493505 0.61000049 1.097128e-38
0.61914247 -0.44568256 0.61000049 1.097128e-38
0.62283391 -0.44551918 0.61000049 1.097128e-38
0.62505913 -0.44542062 0.61000055 1.097128e-38
0.62841207 -0.44571549 0.61000055 1.097128e-38
0.63178009 -0.44512308 0.61000061 1.097128e-38
0.63403559 -0.44591281 0.61000061 1.097128e-38
0.63743401 -0.44531909 0.61000061 1.097128e-38
0.64084792 -0.44561577 0.61000067 1.097128e-38
0.64313418 -0.44551608 0.61000061 1.097128e-38
0.64696282 -0.44534913 0.61000073 1.097128e-38
0.65003979 -0.44521493 0.61000073 1.097128e-38
0.65235746 -0.4451139 0.61000073 1.1063476e-38
0.65468311 -0.44591582 0.61000073 1.1063476e-38
0.65818757 -0.44531286 0.61000079 1.1063476e-38
0.66170812 -0.4456141 0.61000085 1.1063476e-38
0.66406608 -0.44551289 0.61000079 1.1063476e-38
0.66801494 -0.44534335 0.61000085 1.1063476e-38
0.67118883 -0.44520706 0.61000085 1.1063476e-38
0.67357957 -0.44510439 0.61000085 1.1063476e-38
0.67597866 -0.44591886 0.61000097 1.1063476e-38
0.67999697 -0.44574901 0.61000085 1.1063476e-38
0.68322659 -0.44561243 0.61000097 1.1063476e-38
0.68565953 -0.44550961 0.61000097 1.1063476e-38
0.68810093 -0.44540638 0.61000097 1.1063476e-38
0.6905511 -0.44530287 0.61000097 1.1063476e-38
0.6946547 -0.44512931 0.61000103 1.1063476e-38
0.6979534 -0.44592205 0.61000103 1.1063476e-38
0.70043838 -0.44581866 0.61000103 1.1063476e-38
0.70293212 -0.44571483 0.61000109 1.1063476e-38
0.70710915 -0.44554105 0.61000109 1.1063476e-38
0.71046698 -0.44540137 0.61000109 1.1063476e-38
0.7129966 -0.44529608 0.61000121 1.1063476e-38
0.71553528 -0.44519049 0.61000115 1.1063476e-38
0.71808308 -0.44508445 0.61000115 1.1063476e-38
0.72064006 -0.44592527 0.61000121 1.1063476e-38
0.72492319 -0.44574991 0.61000121 1.1063476e-38
0.72836655 -0.44560891 0.61000127 1.1063476e-38
0.73096067 -0.4455027 0.61000133 1.1063476e-38
0.73356432 -0.44539613 0.61000127 1.1063476e-38
0.73617738 -0.44528913 0.61000133 1.1063476e-38
0.73879999 -0.44518173 0.61000133 1.1063476e-38
0.74143213 -0.44507396 0.61000133 1.1063476e-38
0.74495775 -0.44589305 0.61000133 1.1063476e-38
0.74938673 -0.44571468 0.61000133 1.1063476e-38
0.75205779 -0.44560707 0.61000144 1.1063476e-38
0.75473863 -0.44549912 0.61000139 1.1063476e-38
0.75742936 -0.4453907 0.6100015 1.1063476e-38
0.76013017 -0.44528195 0.6100015 1.1063476e-38
0.76284087 -0.44517279 0.61000144 1.1063476e-38
0.76556176 -0.4450632 0.6100015 1.1063476e-38
0.76829267 -0.44593215 0.6100015 1.1063476e-38
0.77286798 -0.44575092 0.61000156 1.1063476e-38
0.77654672 -0.44560516 0.61000156 1.1063476e-38
0.77931875 -0.44549537 0.61000162 1.1063476e-38
0.78210121 -0.44538516 0.61000162 1.1063476e-38
0.78489405 -0.4452745 0.61000168 1.1063476e-38
0.78769743 -0.44516349 0.61000168 1.1063476e-38
0.79051149 -0.44505203 0.61000162 1.1063476e-38
0.79333609 -0.44593573 0.61000168 1.1063476e-38
0.79617155 -0.44582528 0.61000168 1.1063476e-38
0.79901761 -0.44571447 0.61000174 1.1063476e-38
0.80187464 -0.44560319 0.61000174 1.1063476e-38
0.80474252 -0.44549149 0.61000174 1.1063476e-38
0.8076213 -0.44537944 0.61000174 1.1063476e-38
0.81051111 -0.44526684 0.6100018 1.1063476e-38
0.81341201 -0.44515383 0.6100018 1.1063476e-38
0.81632411 -0.44504046 0.6100018 1.1063476e-38
0.81924731 -0.44593942 0.61000186 1.1063476e-38
0.82218194 -0.44582713 0.61000192 1.1063476e-38
0.82512784 -0.44571438 0.61000186 1.1063476e-38
0.82808512 -0.44560117 0.61000186 1.1063476e-38
0.83105391 -0.44548753 0.61000192 1.1063476e-38
0.8340342 -0.44537342 0.61000198 1.1063476e-38
0.83702612 -0.44525889 0.61000198 1.1063476e-38
0.84002972 -0.44514394 0.61000198 1.1063476e-38
0.84304506 -0.4460572 0.61000204 1.1063476e-38
0.84607214 -0.44594333 0.61000204 1.1063476e-38
0.8491112 -0.44582897 0.6100021 1.1063476e-38
0.85216224 -0.44571427 0.61000204 1.1063476e-38
0.85522527 -0.44559902 0.6100021 1.1063476e-38
0.85830033 -0.44548336 0.61000216 1.1063476e-38
0.86138755 -0.44536722 0.61000216 1.1063476e-38
0.86448717 -0.44525069 0.61000216 1.1063476e-38
0.86759889 -0.44513357 0.61000222 1.1063476e-38
0.28710681 -0.44259819 0.60999972 1.1063476e-38
0.28958997 -0.44244361 0.60999966 1.1063476e-38
0.29258704 -0.44247782 0.60999966 1.1063476e-38
0.2957269 -0.44239366 0.60999966 1.1063476e-38
0.29838029 -0.44256267 0.60999966 1.1063476e-38
0.30143055 -0.4423748 0.60999966 1.1063476e-38
0.30462679 -0.44251299 0.60999966 1.1063476e-38
0.30732775 -0.44268385 0.60999966 1.1063476e-38
0.31043297 -0.44249469 0.60999966 1.1063476e-38
0.31368679 -0.44263446 0.60999966 1.1063476e-38
0.3163054 -0.44247583 0.60999966 1.1063476e-38
0.31959826 -0.4426167 0.60999966 1.1063476e-38
0.32277837 -0.44242516 0.60999966 1.1063476e-38
0.3255778 -0.4425984 0.60999966 1.1063476e-38
0.32825813 -0.44243783 0.60999966 1.1063476e-38
0.33162883 -0.44258022 0.60999966 1.1063476e-38
0.33488438 -0.4423863 0.60999966 1.1063476e-38
0.33775041 -0.44256151 0.6099996 1.1063476e-38
0.34049466 -0.44239891 0.6099996 1.1155671e-38
0.34339175 -0.44257554 0.60999966 1.1155671e-38
0.3460269 -0.44276947 0.6099996 1.1155671e-38
0.34951523 -0.44244817 0.60999966 1.1155671e-38
0.35302532 -0.44235903 0.60999954 1.1155671e-38
0.35599253 -0.4425377 0.60999954 1.1155671e-38
0.3586916 -0.44273388 0.60999954 1.1155671e-38
0.36154771 -0.44256854 0.6099996 1.1155671e-38
0.36441913 -0.44240218 0.60999954 1.1155671e-38
0.36730617 -0.44223499 0.60999954 1.1155671e-38
0.3700633 -0.44243202 0.6099996 1.1155671e-38
0.37312734 -0.44261333 0.60999954 1.1155671e-38
0.37606174 -0.44244534 0.6099996 1.1155671e-38
0.37901217 -0.44227642 0.6099996 1.1155671e-38
0.38197881 -0.44282886 0.60999954 1.1155671e-38
0.38496181 -0.44266009 0.60999954 1.1155671e-38
0.38796121 -0.44249037 0.6099996 1.1155671e-38
