# .PCD v0.7 - Point Cloud Data file format
VERSION 0.7
FIELDS x y z rgb
SIZE 4 4 4 4
TYPE F F F F
COUNT 1 1 1 1
WIDTH 975
HEIGHT 1
VIEWPOINT 0 0 0 1 0 0 0
POINTS 975
DATA ascii
1.6232362 -1.0751913 -0.00025966292 4.978564e-39
1.6748334 -1.0751218 -6.1987877e-05 4.978564e-39
1.7245759 -1.0744693 -0.00067292579 4.978564e-39
1.7755392 -1.0750935 -0.00072719343 4.978564e-39
1.8261371 -1.0748595 -0.00076439371 4.978564e-39
1.8742836 -1.0751067 -0.00077559764 4.978564e-39
1.9237058 -1.0745782 -0.00049018051 4.978564e-39
1.9746953 -1.0745852 -0.0016533477 4.978564e-39
2.0240269 -1.0750271 -0.001974426 4.978564e-39
2.0741034 -1.0753047 -0.00028755353 4.978564e-39
2.1261861 -1.0751411 -0.00063909002 4.978564e-39
2.1767063 -1.0747763 -0.00067061104 4.978564e-39
2.2275889 -1.0740857 -0.0016425131 4.978564e-39
2.2753897 -1.0746984 -6.808425e-06 4.978564e-39
2.324358 -1.0750829 -0.00095239654 4.978564e-39
2.3758118 -1.0755436 -0.00039875554 4.978564e-39
2.4240668 -1.0752643 -0.0014182117 4.978564e-39
2.4726064 -1.0749205 -0.00056923646 4.978564e-39
2.5233226 -1.0742337 -0.0021760811 4.978564e-39
2.5745113 -1.0751175 -0.00075342914 4.978564e-39
2.6268709 -1.075083 -0.00036053153 4.978564e-39
2.6762381 -1.0748041 -0.0010339506 4.978564e-39
2.7259223 -1.0742302 -0.00033363633 4.978564e-39
2.7769403 -1.0756123 -0.00037155827 4.978564e-39
2.8233151 -1.075492 -0.002996278 4.978564e-39
2.8714814 -1.0751708 -0.0012873762 4.978564e-39
2.9199128 -1.0741925 -0.0016184937 4.978564e-39
2.9714773 -1.0757357 -0.00056777976 4.978564e-39
3.0219257 -1.074578 -0.0037765598 4.978564e-39
3.0759175 -1.0744225 -0.0012288929 4.978564e-39
3.1290309 -1.0738066 -0.0011192466 4.978564e-39
3.1760142 -1.073828 -0.0023689393 4.978564e-39
3.2265003 -1.0732075 -0.0029349066 4.978564e-39
3.2786646 -1.074279 -0.0013939951 4.978564e-39
3.3214691 -1.075327 -0.0034388907 4.978564e-39
3.3751781 -1.0749393 -0.0038323682 4.978564e-39
3.4271348 -1.0742043 -0.00081916398 4.978564e-39
3.4746757 -1.0756347 -0.0015622636 4.978564e-39
3.5244968 -1.0743695 -0.0013327781 4.978564e-39
3.5726459 -1.0748216 -0.0013698615 4.978564e-39
3.623559 -1.0757042 -0.00062504172 4.978564e-39
3.6732552 -1.0734507 -0.0013048211 4.978564e-39
3.725858 -1.0749489 -0.00059898995 4.978564e-39
3.7776048 -1.0766504 -0.0014677712 4.978564e-39
3.8270924 -1.0747761 -0.0038409263 4.978564e-39
3.8709726 -1.0740033 -0.00039412454 4.978564e-39
3.9272542 -1.0749227 -0.0022872868 4.978564e-39
3.9764876 -1.0773808 -0.0025694207 4.978564e-39
4.026957 -1.0753701 -0.0009176028 4.978564e-39
4.074893 -1.0744638 -0.0080522159 4.978564e-39
4.125648 -1.0762633 -5.6502853e-05 4.978564e-39
4.1783118 -1.0738338 -0.00027832066 4.978564e-39
4.2202716 -1.0740064 -0.0010202958 4.978564e-39
4.2713871 -1.0775824 -0.0028598162 4.978564e-39
4.3284473 -1.0762355 -0.00068641995 4.978564e-39
4.3739552 -1.0739843 -0.0014654642 4.978564e-39
4.4210887 -1.074102 -0.0038643763 4.978564e-39
4.4766226 -1.0759724 -1.0120241e-05 4.978564e-39
4.5357823 -1.0752462 -0.00041659983 4.978564e-39
4.584475 -1.0759876 -0.00028339264 4.978564e-39
4.6300445 -1.0699652 -0.0024531519 4.978564e-39
4.6824007 -1.0757573 -7.47874e-05 4.978564e-39
4.7305603 -1.0785185 -0.0062331962 4.978564e-39
4.7829638 -1.075825 -0.0034251995 4.978564e-39
4.8364592 -1.0738047 -0.00081649586 4.978564e-39
4.8752198 -1.0748394 -0.0036422722 4.978564e-39
0.76145041 -1.0366104 -0.031647801 4.978564e-39
0.82829863 -1.0250582 -9.9654564e-05 4.978564e-39
0.87425548 -1.025022 -0.000160082 4.978564e-39
0.92384773 -1.0250038 -0.00011113573 4.978564e-39
0.97457999 -1.0249761 -6.8064321e-05 4.978564e-39
1.0255123 -1.0251613 -0.00019876419 4.978564e-39
1.0749862 -1.0248468 -6.9180787e-05 4.978564e-39
1.1245732 -1.0249151 -0.00014887845 4.978564e-39
1.1764302 -1.0253624 -0.00041146411 4.978564e-39
1.2258621 -1.0250528 -2.4270825e-05 4.978564e-39
1.2750455 -1.0252738 -0.00096063467 4.978564e-39
1.3240352 -1.0250144 -0.00011380629 4.978564e-39
1.3748258 -1.0253267 -0.00040494863 4.978564e-39
1.4251357 -1.0249259 -0.00062568951 4.978564e-39
1.4750012 -1.0251548 -0.00021721961 4.978564e-39
1.5265901 -1.0249805 -5.7910102e-06 4.978564e-39
1.5744567 -1.0251099 -0.00093566126 4.978564e-39
1.623778 -1.0249003 -0.00054201583 4.978564e-39
1.6744506 -1.0248499 -0.00076969253 4.978564e-39
1.7244517 -1.0251409 -0.0001823362 4.978564e-39
1.7758758 -1.024967 -5.7962475e-06 4.978564e-39
1.8257734 -1.0250883 -0.00052163837 4.978564e-39
1.8742181 -1.0248548 -0.001392959 4.978564e-39
1.9238781 -1.0250294 -0.0013674258 4.978564e-39
1.9751775 -1.0249702 -0.00014013231 4.978564e-39
2.0240116 -1.0248443 -0.00048083221 4.978564e-39
2.0755076 -1.0252506 -0.00090606092 4.978564e-39
2.1267524 -1.0250592 -7.4180689e-06 4.978564e-39
2.1764278 -1.024175 -0.00073277927 4.978564e-39
2.2267237 -1.0252116 -0.0011703206 4.978564e-39
2.2755477 -1.0243231 -0.00080686633 4.978564e-39
2.3252909 -1.025097 -0.0002574239 4.978564e-39
2.3763363 -1.025153 -7.4237e-06 4.978564e-39
2.423131 -1.0249091 -0.00047126226 4.978564e-39
2.472641 -1.0255792 -0.00020805676 4.978564e-39
2.5225959 -1.0247357 -0.00055518409 4.978564e-39
2.5735343 -1.0243002 -0.0012539172 4.978564e-39
2.6260717 -1.0255105 -0.00087564124 4.978564e-39
2.6759012 -1.0256242 -0.0008316504 4.978564e-39
2.7246704 -1.0248597 -0.00075585995 4.978564e-39
2.7765558 -1.0236571 -0.0014453107 4.978564e-39
2.8244805 -1.0263469 -0.0010471984 4.978564e-39
2.8718858 -1.0261122 -0.00059219141 4.978564e-39
2.921108 -1.0243037 -0.0017070487 4.978564e-39
2.971041 -1.0257326 -0.0021183309 4.978564e-39
3.0223835 -1.0242465 -0.0015949892 4.978564e-39
3.0748043 -1.0260497 -0.002456927 4.978564e-39
3.1286588 -1.0249888 -8.1342805e-06 4.978564e-39
3.1781771 -1.0226216 -0.001664846 4.978564e-39
3.2250619 -1.0250728 -0.0028313813 4.978564e-39
3.2769046 -1.0246851 -0.0020460177 4.978564e-39
3.3220918 -1.0243816 -0.00052967796 4.978564e-39
3.373775 -1.0259949 -0.00041556984 4.978564e-39
3.4285493 -1.0259737 -0.0026018254 4.978564e-39
3.4757133 -1.024569 -0.0016077674 4.978564e-39
3.5225527 -1.0256202 -0.0030536314 4.978564e-39
3.5726612 -1.0251162 -0.0016449704 4.978564e-39
3.6230967 -1.0265557 -0.00330798 4.978564e-39
3.6737487 -1.0246758 -0.0028193472 4.978564e-39
3.7252545 -1.0259293 -0.0013772321 4.978564e-39
3.7773249 -1.0247914 -0.0017879811 4.978564e-39
3.8266697 -1.0253458 -0.0030755841 4.978564e-39
3.8719406 -1.0265188 -0.0012329011 4.978564e-39
3.9264519 -1.0240535 -0.0020345759 4.978564e-39
3.9748776 -1.0241103 -0.0052161347 4.978564e-39
4.0241199 -1.0228924 -0.0011099369 4.978564e-39
4.073842 -1.0233779 -0.0043929215 4.978564e-39
4.128664 -1.0241815 -0.0021431309 4.978564e-39
4.1745706 -1.024196 -0.0031412465 4.978564e-39
4.2201343 -1.0252161 -0.0028723225 4.978564e-39
4.2756796 -1.0224319 -0.0016690963 4.978564e-39
4.3268924 -1.0212647 -0.0066937814 4.978564e-39
4.3717508 -1.0248959 -0.00052128313 4.978564e-39
4.4192958 -1.0251893 -0.0038360222 4.978564e-39
4.4757404 -1.0250354 -0.00037139605 4.978564e-39
4.5327539 -1.023267 -0.0017942562 4.978564e-39
4.583261 -1.0251623 -0.00087369641 4.978564e-39
4.6290579 -1.0230794 -0.0026669528 4.978564e-39
4.6801448 -1.0244278 -0.0025496983 4.978564e-39
4.7284851 -1.021256 -0.0033328531 4.978564e-39
4.7843485 -1.0258764 -0.0013241122 4.978564e-39
4.8364654 -1.0240533 -0.0023472495 4.978564e-39
4.875504 -1.0253582 -1.1205673e-05 4.978564e-39
0.7915225 -0.96399015 -0.022181254 4.978564e-39
0.82798129 -0.97498363 -0.00027358034 4.978564e-39
0.87417561 -0.97481704 -0.00043380976 4.978564e-39
0.92388827 -0.97508204 -0.0002286424 4.978564e-39
0.97456455 -0.97478235 -0.00023746767 4.978564e-39
1.0254544 -0.97503555 -4.4753637e-05 4.978564e-39
1.0748641 -0.97510463 -0.00027260862 4.978564e-39
1.1241624 -0.97461373 -0.00045039807 4.978564e-39
1.176082 -0.97530699 -0.00019647495 4.978564e-39
1.2257341 -0.9747507 -8.2748717e-05 4.978564e-39
1.2751211 -0.97485501 -0.00014714597 4.978564e-39
1.3239197 -0.97539896 -0.00028983213 4.978564e-39
1.3751495 -0.97511351 -0.00049866206 4.978564e-39
1.4253819 -0.97477716 -2.5312796e-05 4.978564e-39
1.474563 -0.97477984 -0.00067424518 4.978564e-39
1.5263156 -0.9751249 -6.1313312e-06 4.978564e-39
1.574111 -0.97495735 -0.0003701087 4.978564e-39
1.6239325 -0.97488028 -0.00019491297 4.978564e-39
1.6744441 -0.97511983 -0.00071280578 4.978564e-39
1.7242368 -0.97550708 -0.00024022498 4.978564e-39
1.775813 -0.97454214 -0.00013957691 4.978564e-39
1.8260924 -0.97527802 -0.00082155358 4.978564e-39
1.8739649 -0.97516966 -0.00067901728 4.978564e-39
1.9234684 -0.97526926 -0.00063139194 4.978564e-39
1.974851 -0.97464091 -0.00085217145 4.978564e-39
2.0242026 -0.97476238 -6.2178874e-06 4.978564e-39
2.0743849 -0.9749521 -0.00023079765 4.978564e-39
2.1268954 -0.9753018 -0.0010365216 4.978564e-39
2.1756282 -0.97524619 -0.00046269747 4.978564e-39
2.2270582 -0.97458726 -0.00020956711 4.978564e-39
2.2743468 -0.97453755 -0.0021781407 4.978564e-39
2.3245819 -0.97491693 -0.0012003649 4.978564e-39
2.3754816 -0.97486061 -0.0012504138 4.978564e-39
2.4234598 -0.97567642 -0.0013622411 4.978564e-39
2.4722393 -0.97520018 -0.00051446969 4.978564e-39
2.5235643 -0.97341943 -0.0015475319 4.978564e-39
2.5738611 -0.97468185 -5.1395164e-05 4.978564e-39
2.6266959 -0.97441298 -0.00092414243 4.978564e-39
2.6762154 -0.97497398 -0.0021253761 4.978564e-39
2.7258565 -0.97578007 -0.00050713908 4.978564e-39
2.7762678 -0.97452104 -0.00090237736 4.978564e-39
2.8232725 -0.97683132 -0.0014640556 4.978564e-39
2.873101 -0.97507697 -0.0015384578 4.978564e-39
2.9201503 -0.97444761 -0.0013054109 4.978564e-39
2.9710116 -0.97512352 -0.00028880223 4.978564e-39
3.0228562 -0.97516155 -0.0012616278 4.978564e-39
3.074276 -0.97466803 -0.0024493467 4.978564e-39
3.1296985 -0.97485435 -0.00089490012 4.978564e-39
3.1751263 -0.97645473 -0.0042736218 4.978564e-39
3.2259479 -0.97594506 -0.00032822645 4.978564e-39
3.2780187 -0.97558993 -0.00090668024 4.978564e-39
3.3221641 -0.97550642 -8.5783004e-06 4.978564e-39
3.3745434 -0.97464478 -0.0020804272 4.978564e-39
3.4255416 -0.97447085 -0.0023817604 4.978564e-39
3.4748421 -0.9756093 -0.0021467563 4.978564e-39
3.5241826 -0.97481376 -0.0024257749 4.978564e-39
3.5738328 -0.97506976 -0.0019287826 4.978564e-39
3.6237028 -0.97370654 -0.0023086965 4.978564e-39
3.675123 -0.9755311 -0.0017582156 4.978564e-39
3.7259295 -0.97690755 -0.00020017532 4.978564e-39
3.7787259 -0.97412974 -0.0032935557 4.978564e-39
3.8263614 -0.97645324 -0.0035918413 4.978564e-39
3.8729734 -0.97497809 -0.0022017027 4.978564e-39
3.9271338 -0.97458911 -0.0035292627 4.978564e-39
3.9778142 -0.97515917 -0.0016805779 4.978564e-39
4.0252256 -0.97289765 -0.0028394803 4.978564e-39
4.0732856 -0.97464257 -0.0015332403 4.978564e-39
4.125977 -0.97533274 -0.0023258543 4.978564e-39
4.1761069 -0.97448486 -0.0026236037 4.978564e-39
4.221447 -0.97668612 -0.0027283803 4.978564e-39
4.2727604 -0.97382265 -0.0013162937 4.978564e-39
4.3309898 -0.97468817 -0.0026918433 4.978564e-39
4.373909 -0.97288692 -0.0022761717 4.978564e-39
4.4166756 -0.9756217 -0.0052656797 4.978564e-39
4.4759092 -0.97599351 -0.0024835689 4.978564e-39
4.5327501 -0.97518986 -0.0047755381 4.978564e-39
4.5808892 -0.97427964 -0.0063236593 4.978564e-39
4.6315422 -0.97437996 -0.0054019615 4.978564e-39
4.6835413 -0.976542 -0.0037858484 4.978564e-39
4.733273 -0.97498512 -1.0930575e-05 4.978564e-39
4.7845964 -0.97544616 -1.1003935e-05 4.978564e-39
4.8344007 -0.97502011 -0.0043080556 4.978564e-39
4.8744121 -0.98086768 -0.0011570434 4.978564e-39
0.82834053 -0.92526716 -0.00037861767 4.978564e-39
0.8745001 -0.92465597 -0.00023914539 4.978564e-39
0.92417514 -0.92522007 -1.3284105e-05 4.978564e-39
0.97458571 -0.92491579 -0.00017547254 4.978564e-39
1.0256587 -0.9248414 -0.0002032654 4.978564e-39
1.0744795 -0.92497557 -0.00042293017 4.978564e-39
1.1245366 -0.92490244 -0.00025659971 4.978564e-39
1.1760768 -0.92506731 -0.00034233136 4.978564e-39
1.2258161 -0.92461842 -0.00062687154 4.978564e-39
1.2747223 -0.9248817 -0.00027403902 4.978564e-39
1.3240741 -0.92564672 -0.00024466045 4.978564e-39
1.3746351 -0.92481196 -0.00018076794 4.978564e-39
1.4257504 -0.92478758 -0.00052555359 4.978564e-39
1.4749466 -0.92504722 -0.00022614282 4.978564e-39
1.5264455 -0.92572922 -0.00014811257 4.978564e-39
1.5744565 -0.92487156 -0.00052053307 4.978564e-39
1.6234578 -0.92473167 -0.00014195891 4.978564e-39
1.6745329 -0.92473984 -0.00027753459 4.978564e-39
1.723961 -0.92495793 -0.00022706439 4.978564e-39
1.775972 -0.92506737 -0.00049769477 4.978564e-39
1.8260227 -0.92505437 -0.0010904125 4.978564e-39
1.8740906 -0.92530274 -0.00051946804 4.978564e-39
1.9240592 -0.9255712 -0.00096750859 4.978564e-39
1.97473 -0.92487633 -0.00027795162 4.978564e-39
2.024173 -0.92418927 -0.00058562862 4.978564e-39
2.074549 -0.92536819 -0.00024900405 4.978564e-39
2.1269188 -0.92502725 -0.00035630784 4.978564e-39
2.1759055 -0.9254846 -0.0015020551 4.978564e-39
2.2267983 -0.92401755 -0.00056450604 4.978564e-39
2.2760174 -0.9246794 -0.00085201784 4.978564e-39
2.3258963 -0.925026 -0.00026964676 4.978564e-39
2.3752093 -0.92502379 -0.0024296308 4.978564e-39
2.4231837 -0.92450607 -0.0014879885 4.978564e-39
2.4723442 -0.9252938 -0.00049093342 4.978564e-39
2.5221133 -0.92494553 -0.0011257365 4.978564e-39
2.574214 -0.92497879 -0.0014253381 4.978564e-39
2.6266694 -0.92522305 -0.0015826427 4.978564e-39
2.6747267 -0.9248029 -0.00050201698 4.978564e-39
2.7250779 -0.92526627 -0.0023139787 4.978564e-39
2.7770925 -0.92565155 -0.00039634909 4.978564e-39
2.8250051 -0.92577147 -0.0027375505 4.978564e-39
2.8712969 -0.92408574 -0.0012863732 4.978564e-39
2.9213021 -0.92440271 -0.00092028879 4.978564e-39
2.9711096 -0.92599177 -0.00077656878 4.978564e-39
3.0214725 -0.92527062 -0.0013443746 4.978564e-39
3.0751648 -0.92560601 -0.00061045022 4.978564e-39
3.1281359 -0.92593861 -0.0012052637 4.978564e-39
3.1756034 -0.92578298 -0.0028729653 4.978564e-39
3.2274883 -0.92481703 -0.00021039159 4.978564e-39
3.2763424 -0.92613584 -0.0036339329 4.978564e-39
3.3214653 -0.92488748 -0.0034954541 4.978564e-39
3.3749123 -0.92495304 -0.00058908795 4.978564e-39
3.42819 -0.9246791 -9.0499716e-06 4.978564e-39
3.4751139 -0.92428786 -0.0038092018 4.978564e-39
3.5235994 -0.92475361 -9.4473362e-06 4.978564e-39
3.5735896 -0.92332292 -0.0044071078 4.978564e-39
3.6230266 -0.92485595 -0.0020606192 4.978564e-39
3.6734943 -0.92506933 -0.0032324416 4.978564e-39
3.728482 -0.9268387 -0.0029301026 4.978564e-39
3.7793081 -0.92487115 -0.0016989046 4.978564e-39
3.8246994 -0.92545968 -0.0042974954 4.978564e-39
3.8718548 -0.92358541 -0.0018848632 4.978564e-39
3.9274464 -0.9257943 -0.0016757925 4.978564e-39
3.9752493 -0.92496067 -0.0012777208 4.978564e-39
4.0259323 -0.92350078 -0.0023923132 4.978564e-39
4.07479 -0.92557114 -0.0046342644 4.978564e-39
4.1267924 -0.92624724 -0.0015834175 4.978564e-39
4.1766987 -0.92490882 -0.0012651602 4.978564e-39
4.2188287 -0.92378533 -0.0015174742 4.978564e-39
4.2739244 -0.92361349 -0.0020263395 4.978564e-39
4.3282433 -0.92344922 -0.0030440877 4.978564e-39
4.375742 -0.92467642 -0.0018046231 4.978564e-39
4.4184513 -0.92478651 -0.00056291412 4.978564e-39
4.4760275 -0.9264819 -0.0014607185 4.978564e-39
4.532475 -0.92523468 -0.0069105877 4.978564e-39
4.5831227 -0.92876613 -0.0049124896 4.978564e-39
4.6320453 -0.92609054 -0.0033624037 4.978564e-39
4.679894 -0.92328709 -0.00033000141 4.978564e-39
4.7302427 -0.92738801 -0.0024713541 4.978564e-39
4.7827382 -0.92625153 -0.00074696145 4.978564e-39
4.8346505 -0.9253248 -0.0031663557 4.978564e-39
4.8720245 -0.92706972 -0.0027167422 4.978564e-39
0.82792699 -0.87508708 -0.00022777179 4.978564e-39
0.87412387 -0.87474817 -0.00018723161 4.978564e-39
0.92414528 -0.87515926 -0.00040961467 4.978564e-39
0.97438872 -0.87515318 -0.00040616485 4.978564e-39
1.0252216 -0.8748948 -0.00031340838 4.978564e-39
1.0748518 -0.87522888 -0.0003630273 4.978564e-39
1.1245288 -0.87516814 -0.00032260796 4.978564e-39
1.1761523 -0.87468767 -0.00018094612 4.978564e-39
1.2252111 -0.87459636 -0.00036918739 4.978564e-39
1.2755218 -0.87539476 -0.0005684729 4.978564e-39
1.3242316 -0.87539148 -9.7985612e-05 4.978564e-39
1.3748139 -0.87486857 -0.00032963295 4.978564e-39
1.425235 -0.87472618 -0.00014671628 4.978564e-39
1.4754106 -0.87496835 -0.00026268754 4.978564e-39
1.5258341 -0.87568778 -0.0010019247 4.978564e-39
1.574362 -0.87524176 -0.00028494513 4.978564e-39
1.6235974 -0.87468362 -5.8555197e-06 4.978564e-39
1.6750231 -0.87480062 -0.00069277402 4.978564e-39
1.724196 -0.87497455 -0.0010484932 4.978564e-39
1.7763419 -0.87582588 -0.00057480426 4.978564e-39
1.8257408 -0.87483847 -0.00030179441 4.978564e-39
1.8739632 -0.87538528 -0.00077837863 4.978564e-39
1.9235685 -0.87475604 -0.00015234185 4.978564e-39
1.9744849 -0.87421787 -0.0010980243 4.978564e-39
2.0240378 -0.87497413 -6.7714491e-06 4.978564e-39
2.0751004 -0.87532753 -0.0010794394 4.978564e-39
2.1264582 -0.87539518 -0.00059078151 4.978564e-39
2.176096 -0.87500709 -0.00086415891 4.978564e-39
2.2273283 -0.87498921 -0.00034701836 4.978564e-39
2.2749932 -0.87454164 -0.0010295166 4.978564e-39
2.3247921 -0.87409258 -0.00091179844 4.978564e-39
2.3762503 -0.87495714 -0.00090796861 4.978564e-39
2.4237564 -0.87413663 -0.00092034787 4.978564e-39
2.4721358 -0.8753134 -0.00047375754 4.978564e-39
2.5234408 -0.87537938 -0.00176337 4.978564e-39
2.5736146 -0.87431484 -0.00018167285 4.978564e-39
2.6275578 -0.87472528 -0.0023880089 4.978564e-39
2.6768248 -0.87403011 -0.0015023331 4.978564e-39
2.726274 -0.87416494 -0.001297242 4.978564e-39
2.7768784 -0.87529486 -0.00090460683 4.978564e-39
2.824487 -0.87567699 -0.00023026693 4.978564e-39
2.8727283 -0.87442887 -0.00076209102 4.978564e-39
2.9199948 -0.8750428 -0.0014334257 4.978564e-39
2.9718194 -0.87696034 -0.0038387543 4.978564e-39
3.0243981 -0.87536061 -0.00087562669 4.978564e-39
3.0746062 -0.87517458 -0.001662054 4.978564e-39
3.1294436 -0.87484711 -0.0011153114 4.978564e-39
3.1790988 -0.87473732 -0.00081117556 4.978564e-39
3.2259851 -0.87454075 -0.0027281397 4.978564e-39
3.2767582 -0.87508279 -8.4304811e-06 4.978564e-39
3.3216958 -0.87548387 -0.00013263326 4.978564e-39
3.374121 -0.87474024 -0.00023223275 4.978564e-39
3.4273612 -0.87501615 -1.9796502e-05 4.978564e-39
3.4757638 -0.87474018 -0.0026230451 4.978564e-39
3.5244815 -0.87575483 -0.0011688712 4.978564e-39
3.5727682 -0.87428129 -9.0978365e-06 4.978564e-39
3.6221254 -0.87508082 -0.0030002564 4.978564e-39
3.6751096 -0.87512082 -0.0016004732 4.978564e-39
3.7262988 -0.87434572 -0.0029840285 4.978564e-39
3.7798734 -0.87519306 -0.002944814 4.978564e-39
3.8254704 -0.87831527 -0.0061374861 4.978564e-39
3.8725529 -0.87431902 -0.0024904669 4.978564e-39
3.9282391 -0.87518674 -0.00095796352 4.978564e-39
3.9764059 -0.87531805 -0.0036604563 4.978564e-39
4.0262084 -0.87348336 -0.0039064209 4.978564e-39
4.0757017 -0.8738336 -0.0065271156 4.978564e-39
4.1267662 -0.87401611 -0.0013468158 4.978564e-39
4.1785636 -0.87551552 -0.006375405 4.978564e-39
4.2229414 -0.87726474 -0.0035264988 4.978564e-39
4.2717309 -0.87322825 -0.0030686734 4.978564e-39
4.3304071 -0.87290841 -0.0020807208 4.978564e-39
4.3724346 -0.87662476 -0.0054347762 4.978564e-39
4.4190669 -0.87399006 -0.0021780846 4.978564e-39
4.4749012 -0.87500435 -0.0010363135 4.978564e-39
4.5328069 -0.8737703 -0.0059720124 4.978564e-39
4.5825276 -0.87622422 -1.002275e-05 4.978564e-39
4.6315742 -0.87407887 -0.00082954194 4.978564e-39
4.6792784 -0.8736915 -0.0058554797 4.978564e-39
4.7307053 -0.87497324 -0.0017284788 4.978564e-39
4.7819777 -0.87393004 -0.00056185655 4.978564e-39
4.8347807 -0.87429368 -1.0765516e-05 4.978564e-39
4.8749366 -0.87499553 -0.0057292539 4.978564e-39
0.82845616 -0.84330654 -0.00036670174 4.978564e-39
0.87371892 -0.84265924 -0.0011121378 4.978564e-39
0.92403173 -0.84345365 -4.8472602e-06 4.978564e-39
0.97481257 -0.84331161 -0.00012519459 4.978564e-39
1.0258367 -0.84221578 -0.00054641295 4.978564e-39
1.0749344 -0.84360057 -0.00053379632 4.978564e-39
1.1246221 -0.84271485 -6.5448432e-05 4.978564e-39
1.1756494 -0.84259468 -0.0011742974 4.978564e-39
1.2257434 -0.84287375 -0.00017765304 4.978564e-39
1.2747334 -0.84330583 -5.802443e-06 4.978564e-39
1.3236327 -0.84249949 -0.0015396809 4.978564e-39
1.3751832 -0.84353089 -6.0932678e-05 4.978564e-39
1.4257863 -0.84316874 -5.7653947e-06 4.978564e-39
1.4741178 -0.84266645 -0.0012209071 4.978564e-39
1.5307264 -0.8376441 -0.00025297052 4.978564e-39
1.5744754 -0.82522988 -0.00058561668 4.978564e-39
1.6233933 -0.82480735 -5.4795169e-06 4.978564e-39
1.674755 -0.82507324 -0.0012967956 4.978564e-39
1.7243729 -0.82492983 -0.00057033467 4.978564e-39
1.775766 -0.82477856 -0.0005254873 4.978564e-39
1.8264109 -0.82503605 -0.00054231874 4.978564e-39
1.8738648 -0.82474536 -0.0006721518 4.978564e-39
1.9242663 -0.8253153 -0.00033793101 4.978564e-39
1.9745976 -0.82465893 -0.0011624343 4.978564e-39
2.0243258 -0.82523453 -0.0019436628 4.978564e-39
2.0743191 -0.82495332 -0.00020401811 4.978564e-39
2.1271398 -0.82613093 -0.00086148368 4.978564e-39
2.1761963 -0.82523304 -0.00083880528 4.978564e-39
2.2273712 -0.82555473 -0.0014020673 4.978564e-39
2.2755592 -0.82505071 -0.00035693924 4.978564e-39
2.3247344 -0.82480145 -0.00031910054 4.978564e-39
2.375968 -0.82514685 -7.3684837e-06 4.978564e-39
2.4231236 -0.82487667 -0.0013795642 4.978564e-39
2.4721255 -0.82520074 -0.00043807251 4.978564e-39
2.522671 -0.82564539 -0.00073518354 4.978564e-39
2.5730841 -0.82427007 -0.00043959252 4.978564e-39
2.6255128 -0.82572007 -0.0013088939 4.978564e-39
2.6750467 -0.82572299 -0.00025211315 4.978564e-39
2.7256002 -0.82441443 -0.0022053996 4.978564e-39
2.7760179 -0.8250041 -0.00053157372 4.978564e-39
2.8245013 -0.82496285 -0.0025853082 4.978564e-39
2.8712213 -0.82519144 -0.00011362694 4.978564e-39
2.9222145 -0.8260271 -0.0016082472 4.978564e-39
2.971153 -0.82451946 -0.0011436833 4.978564e-39
3.0217545 -0.82472324 -0.00087702187 4.978564e-39
3.0756915 -0.82505625 -0.0011550421 4.978564e-39
3.1273406 -0.8255527 -0.0022268817 4.978564e-39
3.1763806 -0.82388699 -0.0016698507 4.978564e-39
3.2267056 -0.82506794 -0.0018828666 4.978564e-39
3.277221 -0.82429731 -0.0026712834 4.978564e-39
3.3220284 -0.82553184 -0.0028178166 4.978564e-39
3.3741014 -0.82532847 -0.00057371124 4.978564e-39
3.4267099 -0.82467371 -0.0027786256 4.978564e-39
3.4754229 -0.82625318 -0.00099686009 4.978564e-39
3.5236201 -0.82602298 -0.0015756738 4.978564e-39
3.5726159 -0.82367259 -0.00092210475 4.978564e-39
3.6246519 -0.8253209 -0.0043606558 4.978564e-39
3.6742053 -0.82392836 -9.1013699e-06 4.978564e-39
3.7250319 -0.82847238 -0.0017705472 4.978564e-39
3.779356 -0.82528669 -0.0026780227 4.978564e-39
3.8248341 -0.82295233 -0.00091765454 4.978564e-39
3.8728914 -0.82495427 -0.0051486138 4.978564e-39
3.9284639 -0.82376456 -0.0022954165 4.978564e-39
3.9756575 -0.82517284 -0.0055601634 4.978564e-39
4.0243678 -0.82485098 -0.0012918249 4.978564e-39
4.0758014 -0.82751703 -0.005844207 4.978564e-39
4.1250224 -0.82427573 -0.0022004908 4.978564e-39
4.1785669 -0.82487398 -0.004514969 4.978564e-39
4.2209482 -0.82872385 -0.0031758777 4.978564e-39
4.2742729 -0.82540411 -0.0011727492 4.978564e-39
4.3289318 -0.82412195 -1.0294573e-05 4.978564e-39
4.3759332 -0.82918471 -0.0040964894 4.978564e-39
4.4218612 -0.82652545 -0.003029305 4.978564e-39
4.4769802 -0.82669336 -0.0025519142 4.978564e-39
4.5342364 -0.82452679 -0.00226776 4.978564e-39
4.5843911 -0.82554352 -1.0747176e-05 4.978564e-39
4.6323743 -0.82478923 -0.0034486861 4.978564e-39
4.6830683 -0.82763034 -0.001588175 4.978564e-39
4.7299838 -0.82536137 -0.0023633649 4.978564e-39
4.7814717 -0.82581156 -0.0046655838 4.978564e-39
4.8356924 -0.82570046 -0.002886462 4.978564e-39
4.8745441 -0.82320225 -0.0060915151 4.978564e-39
0.52536654 -0.75400776 -4.6338355e-06 4.978564e-39
0.55382878 -0.75403792 -3.1102788e-06 4.978564e-39
1.5486445 -0.77558559 -5.7403859e-06 4.978564e-39
1.5743642 -0.77469921 -0.00029050928 4.978564e-39
1.6235517 -0.77476776 -0.00029619862 4.978564e-39
1.6743401 -0.77440631 -0.00038652262 4.978564e-39
1.7241817 -0.77467525 -0.00031785158 4.978564e-39
1.7760789 -0.775011 -6.201316e-06 4.978564e-39
1.8261596 -0.77471679 -4.9695791e-05 4.978564e-39
1.8741366 -0.77504498 -0.00031684493 4.978564e-39
1.9235884 -0.77506995 -6.7484089e-06 4.978564e-39
1.9749094 -0.77561837 -0.00087657967 4.978564e-39
2.0241487 -0.77482802 -6.5249556e-06 4.978564e-39
2.0743828 -0.77511799 -0.00094309024 4.978564e-39
2.1263168 -0.77498871 -0.0010023789 4.978564e-39
2.1762176 -0.77449566 -0.00039472681 4.978564e-39
2.2263281 -0.77465343 -0.0013451297 4.978564e-39
2.2751675 -0.7760886 -0.0013917274 4.978564e-39
2.324553 -0.77471858 -0.002278747 4.978564e-39
2.3757055 -0.77431273 -0.00064711925 4.978564e-39
2.4242566 -0.77526563 -0.0020723909 4.978564e-39
2.4735575 -0.77525532 -0.0010431492 4.978564e-39
2.5224349 -0.77480423 -0.0014935249 4.978564e-39
2.574023 -0.77510035 -0.00013626502 4.978564e-39
2.6269104 -0.77449846 -0.0011273193 4.978564e-39
2.6768866 -0.77650058 -0.00091897277 4.978564e-39
2.7263992 -0.7749207 -0.0011913008 4.978564e-39
2.7760065 -0.77437401 -0.0021114938 4.978564e-39
2.8241346 -0.77531236 -0.00082903105 4.978564e-39
2.8717313 -0.77501369 -0.0016584825 4.978564e-39
2.9214795 -0.77551109 -0.00026265974 4.978564e-39
2.9718957 -0.7754072 -0.0023336392 4.978564e-39
3.0224056 -0.77416903 -0.00038266339 4.978564e-39
3.0751059 -0.77467531 -0.0017294588 4.978564e-39
3.1288002 -0.77540433 -0.0016529128 4.978564e-39
3.177568 -0.77403545 -0.00054387405 4.978564e-39
3.226891 -0.77703971 -0.0033555408 4.978564e-39
3.2781458 -0.77613348 -0.00087379606 4.978564e-39
3.3204966 -0.77557057 -0.00051991444 4.978564e-39
3.3725517 -0.77568859 -0.0012466054 4.978564e-39
3.4269252 -0.77407306 -0.0023472561 4.978564e-39
3.4771934 -0.77670705 -0.0017437217 4.978564e-39
3.5231457 -0.77600718 -0.0016697233 4.978564e-39
3.5722866 -0.7734111 -8.7162509e-05 4.978564e-39
3.6236262 -0.77654129 -0.002288183 4.978564e-39
3.6752112 -0.77301365 -0.0057735778 4.978564e-39
3.725625 -0.77586627 -0.00038958309 4.978564e-39
3.7793982 -0.77616239 -0.0015262702 4.978564e-39
3.8264563 -0.77601033 -0.0020566315 4.978564e-39
3.8704584 -0.77770233 -0.0019306896 4.978564e-39
3.9278839 -0.77527183 -0.0014416125 4.978564e-39
3.9742105 -0.77301627 -0.0035715923 4.978564e-39
4.0243726 -0.7752437 -0.0058897133 4.978564e-39
4.0758586 -0.77425247 -0.0011533966 4.978564e-39
4.1262517 -0.77460003 -0.00051266054 4.978564e-39
4.1762042 -0.77385145 -0.0071035284 4.978564e-39
4.2205615 -0.77418095 -0.0059331753 4.978564e-39
4.2738991 -0.7755152 -0.0035865726 4.978564e-39
4.3293014 -0.77158302 -0.0017479154 4.978564e-39
4.3739514 -0.77701253 -0.00056318298 4.978564e-39
4.4207411 -0.77506697 -0.0012559796 4.978564e-39
4.476634 -0.77374083 -1.0865927e-05 4.978564e-39
4.5311913 -0.77591372 -0.0045891367 4.978564e-39
4.579011 -0.77376211 -0.0019681132 4.978564e-39
4.6312194 -0.7746619 -0.005551585 4.978564e-39
4.6811461 -0.77704775 -0.0033305204 4.978564e-39
4.7320561 -0.77135718 -0.0032328237 4.978564e-39
4.784771 -0.77435154 -0.0031705687 4.978564e-39
4.8339057 -0.77515173 -0.002027022 4.978564e-39
4.8763227 -0.77439517 -0.0088285888 4.978564e-39
4.9231033 -0.75204718 -0.020921897 4.978564e-39
0.49790534 -0.7316522 -0.0042361706 4.978564e-39
0.52508056 -0.7248556 -0.00022625893 4.978564e-39
0.55377042 -0.72461116 -0.0001199887 4.978564e-39
1.5478352 -0.72373158 -0.0027277982 4.978564e-39
1.5743495 -0.72495639 -0.00072276714 4.978564e-39
1.6235782 -0.72536409 -0.00060990045 4.978564e-39
1.6747298 -0.72453696 -0.00023577306 4.978564e-39
1.7243888 -0.7248947 -6.3133712e-06 4.978564e-39
1.7760113 -0.72463506 -0.00078590424 4.978564e-39
1.8260454 -0.72561991 -0.00085631857 4.978564e-39
1.8739192 -0.72501934 -0.00046627439 4.978564e-39
1.9233373 -0.72466582 -0.0010084651 4.978564e-39
1.9748715 -0.72445327 -0.00026371129 4.978564e-39
2.0235221 -0.72487706 -0.00078902615 4.978564e-39
2.0749247 -0.72494179 -0.0010473087 4.978564e-39
2.1270857 -0.72539985 -0.00081509311 4.978564e-39
2.1763308 -0.72456038 -0.00069684285 4.978564e-39
2.2277327 -0.72447592 -0.00049214798 4.978564e-39
2.275198 -0.72575396 -0.0014104354 4.978564e-39
2.325165 -0.72487319 -0.00056184066 4.978564e-39
2.3756084 -0.72483373 -0.000857907 4.978564e-39
2.4249687 -0.72473061 -0.0012788922 4.978564e-39
2.47191 -0.72544098 -2.54592e-05 4.978564e-39
2.5218329 -0.72506422 -0.00087036786 4.978564e-39
2.573746 -0.72475016 -0.00093954697 4.978564e-39
2.6270556 -0.72563344 -0.0021545913 4.978564e-39
2.6748819 -0.72476327 -0.0015900098 4.978564e-39
2.7252727 -0.72540724 -0.00044461107 4.978564e-39
2.7781227 -0.72445089 -0.00072720717 4.978564e-39
2.8233783 -0.72452801 -0.00016631957 4.978564e-39
2.8719568 -0.72471255 -0.0010844122 4.978564e-39
2.922729 -0.7269823 -0.0023891213 4.978564e-39
2.9711313 -0.72548497 -0.0014129196 4.978564e-39
3.0222569 -0.72531694 -0.0017637449 4.978564e-39
3.0749626 -0.72497535 -0.0012865269 4.978564e-39
3.1292706 -0.72493148 -0.0010819163 4.978564e-39
3.1788499 -0.72484511 -0.0012688611 4.978564e-39
3.2275887 -0.7251972 -0.0024862471 4.978564e-39
3.278969 -0.72623456 -0.0025901066 4.978564e-39
3.3231611 -0.72728801 -0.0036570653 4.978564e-39
3.3758719 -0.72515661 -0.0023551928 4.978564e-39
3.427896 -0.72223616 -0.0023149985 4.978564e-39
3.4753051 -0.72645444 -0.0030098695 4.978564e-39
3.524302 -0.72584826 -8.8681345e-06 4.978564e-39
3.5741384 -0.72466952 -0.0026429307 4.978564e-39
3.6226797 -0.72435468 -0.0031693703 4.978564e-39
3.6752698 -0.7258296 -0.0018250747 4.978564e-39
3.7260044 -0.72614664 -0.0006677481 4.978564e-39
3.7802799 -0.72316241 -0.0016865279 4.978564e-39
3.8262076 -0.72581893 -0.0034226007 4.978564e-39
3.8716407 -0.72420788 -1.0138208e-05 4.978564e-39
3.9295096 -0.72425914 -0.003666884 4.978564e-39
3.9763653 -0.72543544 -1.0200909e-05 4.978564e-39
4.0253572 -0.72340196 -0.0030371267 4.978564e-39
4.076004 -0.72469026 -0.00039051543 4.978564e-39
4.1265368 -0.72528422 -0.00047766353 4.978564e-39
4.1789136 -0.72357422 -0.0010134176 4.978564e-39
4.219593 -0.72550809 -9.9493909e-06 4.978564e-39
4.2741857 -0.72554553 -7.873396e-05 4.978564e-39
4.3292356 -0.72394854 -0.0020413985 4.978564e-39
4.3756108 -0.72844976 -0.0053117881 4.978564e-39
4.4206586 -0.72930145 -0.0019882214 4.978564e-39
4.4749346 -0.72236937 -0.0036359071 4.978564e-39
4.5351911 -0.72646254 -0.0014205668 4.978564e-39
4.5829716 -0.72439599 -0.002953971 4.978564e-39
4.6327972 -0.72378504 -0.0020535707 4.978564e-39
4.6794229 -0.72535121 -0.0021682777 4.978564e-39
4.731009 -0.72383803 -0.0038975882 4.978564e-39
4.7815614 -0.72435892 -0.004489983 4.978564e-39
4.8357959 -0.72592521 -1.1324883e-05 4.978564e-39
4.8773961 -0.72164047 -0.0039017966 4.978564e-39
0.46632522 -0.68689686 -0.045615822 4.978564e-39
0.52494079 -0.67496854 -0.00010995805 4.978564e-39
0.55382884 -0.67509848 -3.9204474e-06 4.978564e-39
1.5486449 -0.67424548 -5.9604645e-06 4.978564e-39
1.5741253 -0.67538041 -0.00012841984 4.978564e-39
1.6236717 -0.67500973 -0.00060846342 4.978564e-39
1.6752652 -0.67520112 -7.9905003e-05 4.978564e-39
1.7247998 -0.67469281 -0.0003882584 4.978564e-39
1.7758962 -0.67546099 -0.00050745794 4.978564e-39
1.8262337 -0.67571008 -0.0011009549 4.978564e-39
1.8742949 -0.67543125 -3.4916233e-05 4.978564e-39
1.9234105 -0.67511272 -0.00045467759 4.978564e-39
1.9756557 -0.67515326 -0.00032653759 4.978564e-39
2.0242901 -0.67476296 -0.00062460214 4.978564e-39
2.0744507 -0.67573804 -0.0012749285 4.978564e-39
2.1261227 -0.67523766 -0.00067942566 4.978564e-39
2.176285 -0.67536116 -0.00045731451 4.978564e-39
2.2272186 -0.67459989 -6.9691587e-06 4.978564e-39
2.2755966 -0.67524767 -0.00033579601 4.978564e-39
2.324887 -0.67474914 -0.00065180467 4.978564e-39
2.3760557 -0.67417759 -7.6035321e-05 4.978564e-39
2.4232557 -0.67516994 -0.0021180052 4.978564e-39
2.47084 -0.67613995 -0.00094662508 4.978564e-39
2.5230439 -0.67522079 -0.0011427982 4.978564e-39
2.5734267 -0.67541176 -0.0010656615 4.978564e-39
2.6259739 -0.67539448 -0.00051638775 4.978564e-39
2.6758461 -0.67467076 -0.00038628426 4.978564e-39
2.7258949 -0.67458159 -0.0011623412 4.978564e-39
2.7765279 -0.67473894 -0.00031379357 4.978564e-39
2.8232098 -0.67561126 -0.0024755306 4.978564e-39
2.8732049 -0.67309189 -0.0026533657 4.978564e-39
2.9214461 -0.67463756 -0.0019962285 4.978564e-39
2.9718809 -0.67482573 -0.00059027935 4.978564e-39
3.0228274 -0.67512107 -0.0016896175 4.978564e-39
3.0745797 -0.67570096 -0.002284104 4.978564e-39
3.1284437 -0.67445612 -0.0012971659 4.978564e-39
3.1787732 -0.67511797 -0.0030416048 4.978564e-39
3.227299 -0.67471904 -0.00049809605 4.978564e-39
3.2762597 -0.67552686 -0.0014514476 4.978564e-39
3.3208795 -0.67509615 -0.00062110205 4.978564e-39
3.3747883 -0.67381042 -0.0016808218 4.978564e-39
3.4290447 -0.67446953 -0.00065915292 4.978564e-39
3.4753606 -0.67578763 -0.0025910609 4.978564e-39
3.5250165 -0.67712915 -0.0016696654 4.978564e-39
3.5743887 -0.67527413 -0.00024641931 4.978564e-39
3.623908 -0.67390406 -0.0012092401 4.978564e-39
3.674463 -0.67601305 -0.0028804631 4.978564e-39
3.7256072 -0.67634541 -0.0035091664 4.978564e-39
3.779151 -0.67545968 -0.0024461555 4.978564e-39
3.8243909 -0.67368531 -0.0049181227 4.978564e-39
3.8714399 -0.67408824 -2.2368125e-05 4.978564e-39
3.9279776 -0.67782784 -0.0026488004 4.978564e-39
3.9757178 -0.6748246 -9.9817908e-06 4.978564e-39
4.0262227 -0.6766569 -0.00053129456 4.978564e-39
4.0769749 -0.67622972 -0.004181853 4.978564e-39
4.1250639 -0.67483735 -0.0023134872 4.978564e-39
4.1777468 -0.67260218 -0.0028385301 4.978564e-39
4.2226615 -0.67748851 -0.0063118841 4.978564e-39
4.2739725 -0.67521101 -0.0042210924 4.978564e-39
4.3276763 -0.6768859 -0.0018451026 4.978564e-39
4.375442 -0.67451566 -0.0076310327 4.978564e-39
4.417377 -0.6760062 -0.0022441919 4.978564e-39
4.4750104 -0.67316687 -0.0018118322 4.978564e-39
4.5357313 -0.67631507 -0.0028708747 4.978564e-39
4.5818629 -0.67436701 -0.0018805605 4.978564e-39
4.6269517 -0.67121017 -0.0054260218 4.978564e-39
4.6830201 -0.67541456 -0.0016011497 4.978564e-39
4.7313175 -0.67532295 -1.1352392e-05 4.978564e-39
4.780611 -0.67557448 -0.0041066618 4.978564e-39
4.8348732 -0.67448312 -0.0022665937 4.978564e-39
4.871891 -0.66985965 -0.0078469478 4.978564e-39
0.52519435 -0.62519228 -6.6454282e-05 4.978564e-39
0.55408138 -0.62518412 -0.0005641075 4.978564e-39
1.5475978 -0.62561518 -0.0029428732 4.978564e-39
1.5744325 -0.62522334 -0.00062848005 4.978564e-39
1.6236123 -0.62444234 -0.00067599845 4.978564e-39
1.6743515 -0.62519687 -0.0011017603 4.978564e-39
1.7242665 -0.62482518 -0.00044686341 4.978564e-39
1.7764111 -0.62506026 -0.00099368684 4.978564e-39
1.8263011 -0.62502229 -0.00023753493 4.978564e-39
1.8736992 -0.62528235 -0.001112794 4.978564e-39
1.9239703 -0.62496102 -0.00072362332 4.978564e-39
1.9752202 -0.62584031 -0.0011870445 4.978564e-39
2.0246961 -0.62455869 -0.00054066948 4.978564e-39
2.0750155 -0.6254217 -0.00068364164 4.978564e-39
2.1264849 -0.62438881 -0.00039309892 4.978564e-39
2.1756275 -0.62511748 -0.0023384858 4.978564e-39
2.2267654 -0.624865 -0.00067368243 4.978564e-39
2.2762876 -0.62479895 -0.00086561282 4.978564e-39
2.3248215 -0.6247955 -0.00021441068 4.978564e-39
2.3765996 -0.62464547 -0.0011732696 4.978564e-39
2.4231455 -0.62397802 -0.00018817718 4.978564e-39
2.472585 -0.62523532 -0.0016768428 4.978564e-39
2.5221968 -0.62552989 -0.0012856567 4.978564e-39
2.574347 -0.62571371 -0.00049608771 4.978564e-39
2.6269939 -0.62553173 -7.8504281e-06 4.978564e-39
2.6753001 -0.62483436 -0.001654693 4.978564e-39
2.7259388 -0.62539542 -6.7047964e-05 4.978564e-39
2.7764294 -0.62569463 -0.00044214638 4.978564e-39
2.8247159 -0.62649882 -0.0014115212 4.978564e-39
2.8712919 -0.62539041 -0.00052094134 4.978564e-39
2.9205887 -0.62467474 -0.00088186545 4.978564e-39
2.9698076 -0.62533438 -0.0024595689 4.978564e-39
3.0221937 -0.6245653 -0.0014303498 4.978564e-39
3.0764439 -0.62489295 -0.0012333492 4.978564e-39
3.1296315 -0.62487829 -0.000749239 4.978564e-39
3.1768279 -0.62445062 -8.6879727e-06 4.978564e-39
3.2270927 -0.62409353 -0.0025103239 4.978564e-39
3.2780612 -0.62378323 -0.0019392576 4.978564e-39
3.3231068 -0.62572914 -0.0011391712 4.978564e-39
3.3739073 -0.62340844 -0.0032700829 4.978564e-39
3.4263504 -0.62278843 -0.005533257 4.978564e-39
3.4746504 -0.62478721 -0.0022613758 4.978564e-39
3.5250068 -0.62544221 -0.0036956097 4.978564e-39
3.5744779 -0.6253444 -0.0011807242 4.978564e-39
3.6238115 -0.62568754 -0.0025032554 4.978564e-39
3.6739161 -0.62416846 -0.0034798938 4.978564e-39
3.727066 -0.62535357 -0.0029654433 4.978564e-39
3.781383 -0.62566769 -0.00085007434 4.978564e-39
3.8246522 -0.62651342 -0.0011735315 4.978564e-39
3.8713262 -0.6261189 -0.0036550963 4.978564e-39
3.9290917 -0.62464935 -0.002077105 4.978564e-39
3.9752121 -0.6255936 -0.0066160643 4.978564e-39
4.0247531 -0.62477672 -0.00037608482 4.978564e-39
4.0755134 -0.62707168 -0.0030908538 4.978564e-39
4.1266551 -0.6261363 -0.0011630025 4.978564e-39
4.178391 -0.62610728 -0.0054995241 4.978564e-39
4.221519 -0.62534052 -5.8038611e-05 4.978564e-39
4.2752957 -0.62851602 -0.0042040995 4.978564e-39
4.328032 -0.62617159 -0.0022182988 4.978564e-39
4.3717527 -0.62519127 -9.142598e-05 4.978564e-39
4.4189682 -0.62398338 -0.0065345159 4.978564e-39
4.4767504 -0.62363476 -0.003330814 4.978564e-39
4.5357103 -0.62556219 -0.0019810642 4.978564e-39
4.584229 -0.6258381 -0.0037557536 4.978564e-39
4.6289887 -0.62762582 -0.0031313288 4.978564e-39
4.6839981 -0.62640893 -0.0020467381 4.978564e-39
4.7305632 -0.62988001 -0.00070666877 4.978564e-39
4.7804518 -0.62351286 -0.0053376756 4.978564e-39
4.8357964 -0.62429625 -1.1672576e-05 4.978564e-39
4.8726068 -0.62835443 -0.010763632 4.978564e-39
0.52525377 -0.57503515 -0.00011305732 4.978564e-39
0.55386722 -0.57470363 -5.1990633e-06 4.978564e-39
1.5470544 -0.57741857 -0.0068806135 4.978564e-39
1.574034 -0.57492381 -0.00048889988 4.978564e-39
1.6233945 -0.57461005 -0.00032904718 4.978564e-39
1.6746731 -0.5745222 -0.00054204988 4.978564e-39
1.7246158 -0.57506627 -5.3306649e-05 4.978564e-39
1.7754059 -0.57476145 -0.00088947517 4.978564e-39
1.825755 -0.57469988 -0.0010602269 4.978564e-39
1.8743464 -0.57515448 -0.00061578333 4.978564e-39
1.9229443 -0.57534784 -0.0012966749 4.978564e-39
1.9744468 -0.57472146 -0.00081822608 4.978564e-39
2.024235 -0.57540625 -0.0011485901 4.978564e-39
2.0738509 -0.57517606 -0.00073186727 4.978564e-39
2.1273794 -0.57488376 -0.00051729719 4.978564e-39
2.1769328 -0.57419288 -0.0020031484 4.978564e-39
2.2275231 -0.57474542 -0.0007716096 4.978564e-39
2.2753859 -0.57473117 -7.1250474e-06 4.978564e-39
2.3246458 -0.57452291 -0.0024934588 4.978564e-39
2.3752108 -0.57429296 -0.00089736521 4.978564e-39
2.4244015 -0.57541978 -0.0022566803 4.978564e-39
2.4725959 -0.57424271 -0.00055450294 4.978564e-39
2.5224736 -0.57613504 -0.00027234791 4.978564e-39
2.5732925 -0.57529259 -0.001632602 4.978564e-39
2.6260903 -0.57602042 -0.00068160013 4.978564e-39
2.676455 -0.57434493 -0.0010374644 4.978564e-39
2.7249534 -0.57533032 -0.0012555029 4.978564e-39
2.7766371 -0.57487065 -0.0018984788 4.978564e-39
2.8233457 -0.57594663 -0.0020300078 4.978564e-39
2.8731921 -0.5765655 -0.0012369944 4.978564e-39
2.921865 -0.57577997 -0.00030726838 4.978564e-39
2.9706788 -0.57514447 -0.00078980136 4.978564e-39
3.0228941 -0.57596719 -0.0013649923 4.978564e-39
3.0744488 -0.57461715 -0.0031269693 4.978564e-39
3.1272686 -0.57446688 -0.0026659318 4.978564e-39
3.1780882 -0.5736053 -0.0019812656 4.978564e-39
3.2270663 -0.57403797 -0.00058521715 4.978564e-39
3.2779133 -0.5748626 -0.0024874245 4.978564e-39
3.322341 -0.57557428 -0.0010663223 4.978564e-39
3.3751986 -0.57498366 -0.0031999499 4.978564e-39
3.4286757 -0.57372141 -0.00082779222 4.978564e-39
3.4740157 -0.57490277 -0.0025004828 4.978564e-39
3.524909 -0.57460892 -0.0010435362 4.978564e-39
3.5740571 -0.57513666 -0.0034630732 4.978564e-39
3.6229391 -0.57484508 -0.001349592 4.978564e-39
3.6737261 -0.57315862 -0.0031095818 4.978564e-39
3.7252619 -0.57497895 -0.00045463911 4.978564e-39
3.7792444 -0.5751251 -0.00084896333 4.978564e-39
3.8246167 -0.57418627 -0.0015369218 4.978564e-39
3.87361 -0.57621336 -0.0042326278 4.978564e-39
3.9288261 -0.57504857 -0.0025756622 4.978564e-39
3.9747379 -0.57492745 -0.00020018769 4.978564e-39
4.0236478 -0.57639313 -0.0029038829 4.978564e-39
4.0741687 -0.57557875 -0.0033737123 4.978564e-39
4.1268697 -0.57437372 -0.0018602763 4.978564e-39
4.1808157 -0.57556885 -0.0041057356 4.978564e-39
4.2204123 -0.57379311 -1.0251999e-05 4.978564e-39
4.2740407 -0.57623929 -0.002548812 4.978564e-39
4.3268175 -0.58069944 -0.0032638994 4.978564e-39
4.3742957 -0.5748933 -0.003562157 4.978564e-39
4.4185762 -0.57267201 -0.0023749475 4.978564e-39
4.4768195 -0.57368284 -0.0020680844 4.978564e-39
4.5343575 -0.57516658 -0.0027687973 4.978564e-39
4.5828767 -0.57476848 -0.0026904347 4.978564e-39
4.6301222 -0.57611114 -0.0078082005 4.978564e-39
4.6790695 -0.57531428 -0.0031670053 4.978564e-39
4.7348542 -0.57334107 -0.00723287 4.978564e-39
4.7817965 -0.57413995 -0.0043347841 4.978564e-39
4.8330498 -0.5749281 -0.0053759417 4.978564e-39
4.8731875 -0.57966781 -0.0061384453 4.978564e-39
0.47489002 -0.53097528 -0.0041471138 4.978564e-39
0.52491152 -0.52501106 -0.00013962011 4.978564e-39
0.55385625 -0.52490395 -0.00023393614 4.978564e-39
1.499086 -0.50585049 -0.035608832 4.978564e-39
1.5472823 -0.5247944 -0.0012271805 4.978564e-39
1.5743078 -0.52511781 -0.00048099435 4.978564e-39
1.6235684 -0.52520204 -0.00060167181 4.978564e-39
1.6746572 -0.52495056 -0.00013606368 4.978564e-39
1.7244014 -0.52502513 -0.00049982307 4.978564e-39
1.7760111 -0.5250569 -6.3558014e-06 4.978564e-39
1.8254585 -0.52504075 -0.00074488611 4.978564e-39
1.8743838 -0.52577078 -0.00099870283 4.978564e-39
1.9241066 -0.52518797 -0.00015375561 4.978564e-39
1.9747814 -0.5250231 -0.00020436617 4.978564e-39
2.0239494 -0.5252164 -0.00069110165 4.978564e-39
2.0753615 -0.52455372 -0.00022084675 4.978564e-39
2.1265919 -0.52555978 -0.0011506381 4.978564e-39
2.1757064 -0.52490479 -0.0014250956 4.978564e-39
2.2276061 -0.52425778 -0.0010326318 4.978564e-39
2.2747772 -0.52489769 -0.00054970739 4.978564e-39
2.3251736 -0.52522177 -0.00050980918 4.978564e-39
2.3759625 -0.52535647 -0.0015790247 4.978564e-39
2.4230075 -0.52574521 -0.0011013784 4.978564e-39
2.472085 -0.52477658 -0.0010367442 4.978564e-39
2.5223999 -0.5247919 -0.001246626 4.978564e-39
2.5738184 -0.52589184 -0.0010780557 4.978564e-39
2.6278238 -0.52484 -0.0016962537 4.978564e-39
2.6755166 -0.52504236 -0.0022442779 4.978564e-39
2.7256565 -0.52498651 -0.00017770044 4.978564e-39
2.7770813 -0.52495676 -8.1721109e-06 4.978564e-39
2.8230975 -0.52433217 -0.0017101257 4.978564e-39
2.8719304 -0.52548885 -0.00088484277 4.978564e-39
2.9215307 -0.52502102 -0.0011146438 4.978564e-39
2.9710968 -0.5244481 -0.0023636092 4.978564e-39
3.0220764 -0.52482224 -0.001075528 4.978564e-39
3.075011 -0.52533174 -0.001196774 4.978564e-39
3.1271698 -0.52492779 -0.0013141311 4.978564e-39
3.1779101 -0.52553678 -0.0021853109 4.978564e-39
3.2258873 -0.52445507 -0.0029424299 4.978564e-39
3.2777727 -0.52560985 -0.0021942181 4.978564e-39
3.3229594 -0.52512884 -0.00037965883 4.978564e-39
3.3733778 -0.52490902 -0.0013578272 4.978564e-39
3.4279969 -0.52420115 -0.00049063453 4.978564e-39
3.4757333 -0.52653068 -0.00095138338 4.978564e-39
3.5221968 -0.52749336 -0.0025694731 4.978564e-39
3.5729768 -0.52487582 -0.00045756399 4.978564e-39
3.623683 -0.52284139 -0.0031431247 4.978564e-39
3.6765726 -0.52353752 -0.0017271531 4.978564e-39
3.7272973 -0.52462423 -9.5833902e-06 4.978564e-39
3.7800739 -0.5240162 -0.0035281298 4.978564e-39
3.8237631 -0.52479655 -0.0015502152 4.978564e-39
3.872432 -0.52555609 -0.0028704989 4.978564e-39
3.9277818 -0.5243004 -0.0021275661 4.978564e-39
3.9767287 -0.5256291 -0.0035152463 4.978564e-39
4.0228281 -0.52335602 -0.0041114418 4.978564e-39
4.0748 -0.52317208 -0.0021411055 4.978564e-39
4.1247516 -0.52645957 -0.0068593454 4.978564e-39
4.1760287 -0.52548122 -0.0055464576 4.978564e-39
4.2211351 -0.52195716 -0.0029360333 4.978564e-39
4.2754583 -0.52423364 -0.0018936292 4.978564e-39
4.3284202 -0.52812165 -0.0053738151 4.978564e-39
4.3752918 -0.52670753 -0.0036392368 4.978564e-39
4.4193778 -0.5251615 -0.0032166853 4.978564e-39
4.4762363 -0.5219273 -0.0032783514 4.978564e-39
4.5334048 -0.52293289 -0.0031815763 4.978564e-39
4.5799241 -0.52141631 -0.0030295309 4.978564e-39
4.6300573 -0.52613634 -0.0048357337 4.978564e-39
4.6800418 -0.52667385 -0.00093866885 4.978564e-39
4.7276893 -0.52342606 -0.0024550243 4.978564e-39
4.7798462 -0.52574205 -0.00507025 4.978564e-39
4.8304582 -0.52542436 -0.0027289521 4.978564e-39
4.8740635 -0.52992916 -0.0028764182 4.978564e-39
0.52493978 -0.4749938 -4.8583228e-05 4.978564e-39
0.55386734 -0.47511593 -5.3721092e-06 4.978564e-39
1.5476091 -0.47681299 -0.0004108662 4.978564e-39
1.5739392 -0.47514766 -0.00016957325 4.978564e-39
1.6237115 -0.47537416 -0.000495288 4.978564e-39
1.6743591 -0.47435597 -0.00070924818 4.978564e-39
1.7245648 -0.47521049 -0.0008916618 4.978564e-39
1.7760251 -0.47496843 -0.00032406289 4.978564e-39
1.8257293 -0.47474372 -0.00022710455 4.978564e-39
1.8734756 -0.47475907 -0.00052337121 4.978564e-39
1.9234554 -0.47481683 -0.00083204044 4.978564e-39
1.9749078 -0.47408053 -0.00097623898 4.978564e-39
2.0238094 -0.47489452 -0.0003958813 4.978564e-39
2.0744894 -0.47467381 -0.00022982905 4.978564e-39
2.1260262 -0.47487494 -0.0020508263 4.978564e-39
2.1762133 -0.47452623 -0.00025448194 4.978564e-39
2.2275934 -0.47477198 -0.0004441349 4.978564e-39
2.2754817 -0.4742659 -0.00054626091 4.978564e-39
2.3251848 -0.47413659 -0.0011763233 4.978564e-39
2.374687 -0.47466201 -0.001118892 4.978564e-39
2.423439 -0.47480261 -0.0014675249 4.978564e-39
2.4729869 -0.47387955 -0.0012481775 4.978564e-39
2.5228744 -0.47419217 -0.001752631 4.978564e-39
2.5738797 -0.47484136 -0.00038793514 4.978564e-39
2.6261115 -0.47499406 -0.00045823262 4.978564e-39
2.6763995 -0.47534031 -0.00095513009 4.978564e-39
2.7256148 -0.47478232 -0.0013354764 4.978564e-39
2.7775426 -0.47495171 -0.00079055026 4.978564e-39
2.8246624 -0.47561395 -0.00042010882 4.978564e-39
2.8715091 -0.4735541 -0.00124363 4.978564e-39
2.9218614 -0.47448987 -0.0027737294 4.978564e-39
2.9717023 -0.4753859 -0.0010032598 4.978564e-39
3.0222473 -0.47387654 -0.00011960539 4.978564e-39
3.0748372 -0.47381988 -0.001501382 4.978564e-39
3.1292596 -0.47568551 -0.00089959172 4.978564e-39
3.1779451 -0.474419 -8.788109e-06 4.978564e-39
3.2268391 -0.47496101 -9.2176833e-06 4.978564e-39
3.2772253 -0.47420219 -0.00038386826 4.978564e-39
3.3205276 -0.4735963 -0.0011621618 4.978564e-39
3.3736403 -0.47496331 -0.00099903438 4.978564e-39
3.4290926 -0.4740645 -0.0032468666 4.978564e-39
3.475342 -0.47554564 -0.0011838177 4.978564e-39
3.5226996 -0.47502548 -0.0046909289 4.978564e-39
3.5727713 -0.47450542 -9.735425e-06 4.978564e-39
3.6231692 -0.47447452 -0.0033909488 4.978564e-39
3.6739831 -0.4761804 -0.0030135291 4.978564e-39
3.7259395 -0.4763706 -0.00096005126 4.978564e-39
3.7800229 -0.47426182 -0.0026637793 4.978564e-39
3.8246427 -0.47373825 -0.0063494183 4.978564e-39
3.870928 -0.47369522 -0.0023451578 4.978564e-39
3.9279711 -0.47263372 -0.0016884666 4.978564e-39
3.9770136 -0.4756543 -1.0236105e-05 4.978564e-39
4.0258551 -0.47532719 -0.0021189873 4.978564e-39
4.0739222 -0.47203597 -0.0012787632 4.978564e-39
4.12572 -0.47395858 -0.00047812168 4.978564e-39
4.1785421 -0.47330129 -0.0054785265 4.978564e-39
4.2204142 -0.47509655 -1.0677746e-05 4.978564e-39
4.2748971 -0.47580937 -0.0025741258 4.978564e-39
4.3284192 -0.4764719 -0.0029901478 4.978564e-39
4.3734851 -0.47744709 -0.003485173 4.978564e-39
4.4196596 -0.47516352 -0.0033322135 4.978564e-39
4.4773588 -0.47354293 -0.00023158724 4.978564e-39
4.5345607 -0.4747059 -1.0719667e-05 4.978564e-39
4.5820646 -0.47637653 -0.00089179043 4.978564e-39
4.6325097 -0.47681311 -0.0008812286 4.978564e-39
4.6835628 -0.47593778 -0.0049443562 4.978564e-39
4.7305746 -0.47213915 -3.4258253e-05 4.978564e-39
4.7840276 -0.4757033 -0.0051667755 4.978564e-39
4.8351483 -0.47438705 -0.0042966157 4.978564e-39
4.8741112 -0.48178264 -0.0040120082 4.978564e-39
0.5249331 -0.42506531 -5.0197195e-06 4.978564e-39
0.55379093 -0.42532948 -5.2569344e-06 4.978564e-39
